48.978 41.935 11.928
48.628 41.682 10.496
48.195 40.233 10.3
48.882 39.337 10.797
49.81 41.998 9.588
49.791 43.328 8.879
49.352 43.327 7.137
49.778 41.673 6.617
50.721 41.656 6.279
49.695 41.042 7.392
49.161 41.378 5.885
50.046 41.516 11.963
48.521 41.639 12.54
49.156 43.97 9.416
50.728 43.782 9.019
49.185 41.064 12.366
47.858 42.279 10.268
49.884 41.259 8.883
50.669 41.941 10.142
47.076 40.011 9.617
46.621 38.647 9.368
46.842 38.284 7.901
46.594 39.046 6.967
45.159 38.403 9.751
44.953 37.135 10.558
43.576 36.515 10.448
43.569 35.087 10.97
43.81 34.964 12.437
47.152 38.016 9.939
42.673 34.664 10.749
44.279 34.556 10.477
45.643 36.447 10.264
45.141 37.337 11.537
43.73 34.005 12.705
44.728 35.297 12.65
43.132 35.508 12.929
43.299 36.503 9.493
42.934 37.051 10.987
46.58 40.853 9.293
44.626 38.335 8.912
44.847 39.177 10.293
47.335 37.063 7.719
47.552 36.536 6.378
46.717 35.276 6.184
46.767 34.36 7.003
49.037 36.292 6.134
49.372 35.465 4.902
49.432 36.314 3.644
50.873 36.579 3.233
51.218 35.301 2.601
47.262 37.221 5.706
50.89 37.291 2.584
51.406 36.718 4.023
50.262 35.024 5.038
48.672 34.758 4.783
51.639 34.689 3.275
50.391 34.865 2.236
51.865 35.454 1.85
48.988 37.185 3.819
48.976 35.83 2.906
47.543 36.539 8.585
49.414 35.821 6.939
49.491 37.184 6.044
45.939 35.254 5.114
45.136 34.096 4.753
45.568 33.523 3.403
45.708 34.246 2.414
43.663 34.476 4.752
45.95 36.137 4.552
45.257 33.382 5.455
43.264 34.271 5.645
43.57 35.453 4.563
43.183 33.954 4.047
45.83 32.217 3.354
46.21 31.554 2.115
45.141 30.551 1.681
44.617 29.768 2.475
47.559 30.818 2.193
47.854 30.038 0.915
48.706 31.784 2.485
46.288 32.252 1.394
47.902 29.062 1.125
49.234 31.928 1.649
47.499 30.149 2.933
47.126 30.201 0.251
48.727 30.341 0.535
45.74 31.723 4.265
48.329 32.653 2.801
49.292 31.392 3.192
44.845 30.576 0.386
43.957 29.62 -0.254
44.749 28.868 -1.331
45.208 29.514 -2.274
42.762 30.288 -0.964
41.777 30.887 0.05
42.039 29.329 -1.909
40.859 31.93 -0.557
43.716 28.946 0.438
41.329 29.833 -2.396
42.701 28.956 -2.555
43.115 31.032 -1.525
41.226 30.149 0.427
42.303 31.31 0.782
40.325 31.512 -1.29
45.315 31.357 -0.142
40.246 32.28 0.149
41.632 28.595 -1.371
41.408 32.678 -0.926
44.915 27.558 -1.215
45.6 26.832 -2.295
44.498 26.318 -3.223
43.861 25.299 -2.995
46.518 25.726 -1.817
47.549 26.254 -0.829
46.124 27.494 -2.805
44.552 27.124 -0.37
46.998 25.346 -2.597
45.977 25.032 -1.361
47.352 26.063 0.377
48.594 26.916 -1.309
49.291 27.273 -0.71
48.673 27.057 -2.306
44.23 27.112 -4.259
43.192 26.885 -5.236
43.092 25.477 -5.762
41.991 24.922 -5.825
44.875 27.96 -4.302
42.285 27.157 -4.831
43.33 27.529 -6.028
44.205 24.821 -6.078
44.2 23.447 -6.543
43.618 22.462 -5.537
43.259 21.351 -5.938
45.606 23.002 -6.954
46.498 22.502 -5.834
46.925 23.624 -4.906
46.786 24.81 -5.284
47.393 23.313 -3.794
45.993 21.853 -5.301
43.673 23.384 -7.414
47.309 22.12 -6.229
45.081 25.383 -5.961
46.056 23.782 -7.371
45.505 22.264 -7.609
43.522 22.796 -4.267
43.004 21.934 -3.226
41.512 22.142 -2.98
40.915 21.399 -2.192
43.802 22.192 -1.936
45.215 21.66 -1.919
46.077 22.055 -0.742
45.177 20.642 -1.956
43.132 20.972 -3.519
45.684 21.963 -2.772
43.867 23.781 -4.063
43.297 21.776 -1.165
43.836 23.189 -1.782
47.725 21.897 -1.916
45.65 22.297 0.394
47.387 22.122 -0.987
48.038 22.396 -0.246
40.914 23.145 -3.621
39.488 23.43 -3.435
38.662 22.518 -4.325
38.809 22.569 -5.545
39.185 24.906 -3.729
40.069 25.856 -2.913
37.721 25.231 -3.479
40.104 25.6 -1.418
39.276 23.182 -2.489
37.546 26.174 -3.756
37.154 24.607 -4.014
39.37 25.073 -4.699
41.007 25.8 -3.273
39.742 26.796 -3.068
40.45 24.679 -1.25
41.529 23.694 -4.248
40.704 26.269 -0.983
37.525 25.12 -2.506
39.181 25.686 -1.048
37.856 21.624 -3.779
37.097 20.68 -4.588
35.599 20.947 -4.527
34.845 20.255 -5.204
37.364 19.24 -4.139
38.762 18.765 -4.51
38.699 17.675 -5.57
40.039 17.26 -5.962
40.31 16.184 -6.681
39.323 15.395 -7.09
41.58 15.935 -6.957
39.209 18.39 -3.706
37.399 20.76 -5.551
40.814 17.835 -5.663
39.285 19.526 -4.877
41.82 15.105 -7.492
42.3 16.549 -6.649
37.81 21.651 -2.74
38.221 18.041 -6.358
38.211 16.902 -5.188
39.542 14.563 -7.624
38.377 15.615 -6.878
36.709 18.649 -4.584
37.275 19.199 -3.155
35.21 21.938 -3.749
33.805 22.31 -3.624
33.697 23.683 -2.971
34.663 24.158 -2.36
33.042 21.278 -2.798
33.244 21.494 -1.414
35.975 22.425 -3.239
33.416 22.374 -4.544
33.371 20.369 -3.036
32.071 21.357 -3.001
34.159 21.184 -1.157
32.503 24.263 -3.005
32.274 25.562 -2.369
32.376 25.428 -0.855
32.906 26.276 -0.145
30.942 26.182 -2.804
30.764 27.588 -2.231
29.765 25.296 -2.408
31.913 28.54 -2.471
33.03 26.152 -2.658
28.925 25.696 -2.768
29.903 24.386 -2.792
30.944 26.254 -3.801
29.926 27.985 -2.623
30.62 27.504 -1.237
32.052 28.652 -3.454
31.769 23.734 -3.505
31.701 29.426 -2.061
29.721 25.245 -1.413
32.743 28.17 -2.056
31.985 24.273 -0.343
32.125 23.873 1.041
33.577 23.888 1.507
33.874 24.307 2.629
31.502 22.485 1.202
31.914 21.89 2.415
31.536 23.63 -1.07
31.612 24.532 1.616
31.795 21.914 0.442
30.512 22.577 1.203
31.601 22.446 3.185
34.511 23.474 0.649
35.933 23.498 0.947
36.416 24.946 1.102
37.329 25.276 1.855
36.771 22.878 -0.172
36.919 21.382 -0.165
36.436 20.742 0.787
37.505 20.795 -1.102
34.124 23.128 -0.264
36.064 23.053 1.837
37.693 23.296 -0.127
36.355 23.159 -1.053
35.856 25.803 0.253
36.209 27.206 0.197
35.779 27.938 1.454
36.559 28.761 1.935
35.636 27.884 -1.052
36.079 29.316 -1.339
37.576 29.517 -1.116
35.725 29.716 -2.77
34.736 29.652 -2.898
36.023 30.655 -2.936
36.185 29.102 -3.41
35.134 25.369 -0.374
38.087 28.908 -1.722
37.817 30.466 -1.316
37.801 29.308 -0.165
37.213 27.285 0.111
35.57 29.943 -0.738
34.639 27.891 -0.963
35.894 27.327 -1.844
34.579 27.682 1.961
34.116 28.35 3.173
34.841 27.782 4.395
35.267 28.52 5.284
32.609 28.237 3.373
31.818 28.893 2.285
34.018 26.989 1.438
34.336 29.326 3.105
32.36 28.667 4.246
32.353 27.266 3.408
31.136 28.347 1.244
32.066 30.932 2.799
30.711 31.438 0.777
30.954 30.524 1.104
31.68 30.26 2.175
30.596 29.388 0.535
31.048 27.379 1.039
35.067 26.475 4.402
35.847 25.838 5.455
37.306 26.266 5.433
37.903 26.443 6.503
35.686 24.319 5.391
34.457 23.918 6.21
33.761 22.696 5.644
34.75 23.718 7.142
35.456 26.12 6.345
33.816 24.682 6.212
34.647 25.955 3.606
36.473 23.893 5.791
35.537 24.049 4.462
31.982 23.658 5.807
34.423 21.701 5.351
32.441 22.802 5.516
31.894 22.026 5.128
37.87 26.515 4.255
39.24 27.026 4.174
39.247 28.463 4.687
40.156 28.815 5.443
39.819 26.911 2.761
39.782 25.53 2.361
41.257 27.394 2.669
39.82 26.476 4.768
41.408 27.85 1.788
41.447 28.043 3.41
37.28 26.324 3.432
39.236 27.44 2.118
41.884 26.615 2.747
38.847 25.268 2.103
38.222 29.251 4.388
38.113 30.608 4.905
37.905 30.65 6.414
38.528 31.475 7.087
37.002 31.391 4.193
37.264 31.788 2.74
36.017 32.397 2.114
38.43 32.755 2.621
39.259 32.328 2.983
38.573 32.993 1.66
38.232 33.586 3.141
37.511 28.82 3.759
35.749 33.213 2.628
36.208 32.65 1.165
35.272 31.73 2.137
38.971 31.104 4.689
37.531 30.974 2.223
36.844 32.23 4.708
36.178 30.826 4.204
37.075 29.789 6.985
36.827 29.714 8.414
38.12 29.568 9.224
38.393 30.3 10.168
35.935 28.522 8.748
35.283 28.554 10.118
34.354 27.35 10.288
34.363 26.869 11.729
33.172 26.038 12.051
36.359 30.561 8.714
35.195 26.327 11.886
34.382 27.668 12.339
35.986 28.514 10.819
34.747 29.385 10.21
33.421 25.35 12.732
32.448 26.623 12.416
32.849 25.585 11.221
34.673 26.617 9.704
33.433 27.623 10.047
36.596 29.145 6.294
36.493 27.687 8.685
35.208 28.472 8.055
38.955 28.636 8.782
40.246 28.395 9.392
41.227 29.548 9.228
41.829 30.011 10.202
40.859 27.112 8.807
42.304 26.902 9.254
42.373 26.79 10.776
43.767 27.046 11.298
44.082 28.488 11.428
40.113 28.227 10.39
43.865 26.605 12.202
44.435 26.618 10.672
42.649 26.061 8.854
42.851 27.678 8.963
44.19 28.721 12.395
44.932 28.69 10.94
43.337 29.03 11.037
42.093 25.87 11.039
41.751 27.462 11.171
38.599 28.096 7.96
40.843 27.184 7.82
40.32 26.342 9.117
41.397 30.05 8.016
42.38 31.069 7.688
42.042 32.466 8.169
42.929 33.309 8.312
42.579 31.076 6.163
43.175 29.791 5.623
44.668 29.694 5.886
45.403 30.667 5.609
45.113 28.64 6.373
42.746 29.035 6.077
43.292 30.793 8.071
43.045 29.771 4.651
40.745 29.64 7.292
43.196 31.809 5.949
41.696 31.196 5.751
40.762 32.758 8.379
40.326 34.062 8.86
39.863 33.954 10.315
39.278 34.884 10.878
39.216 34.618 7.975
39.503 35.053 6.541
38.256 35.659 5.896
40.634 36.061 6.433
41.476 35.663 6.799
40.775 36.307 5.473
40.403 36.883 6.955
40.102 31.976 8.17
37.965 36.457 6.423
38.469 35.935 4.96
37.524 34.979 5.886
41.101 34.696 8.824
39.794 34.258 6.009
38.819 35.423 8.454
38.482 33.913 7.928
40.045 32.788 10.927
39.634 32.518 12.308
38.177 32.915 12.548
37.826 33.651 13.469
40.554 33.236 13.283
40.516 32.062 10.329
39.73 31.53 12.486
40.372 32.916 14.213
41.507 33.045 13.047
40.391 34.221 13.233
37.302 32.439 11.66
35.896 32.806 11.706
35.199 32.172 12.899
35.689 31.237 13.524
35.216 32.441 10.375
35.742 33.163 9.132
34.943 32.788 7.884
35.748 34.671 9.325
36.335 34.908 10.1
36.096 35.114 8.498
34.817 34.99 9.505
37.708 31.799 10.952
33.985 33.041 8.015
35.313 33.276 7.095
35.011 31.803 7.73
35.827 33.809 11.793
36.704 32.915 8.994
34.25 32.657 10.46
35.342 31.465 10.229
34.018 32.678 13.216
33.244 32.141 14.327
33.066 30.637 14.193
32.998 30.067 13.108
31.929 32.887 14.296
32.103 34.03 13.362
33.325 33.786 12.53
31.279 34.132 12.769
33.674 32.373 15.21
33.917 34.598 12.494
33.087 33.52 11.592
32.191 34.902 13.883
31.678 33.216 15.223
31.177 32.28 13.983
32.903 29.974 15.328
32.642 28.553 15.441
31.411 28.137 14.645
31.423 27.061 14.058
32.466 28.192 16.92
31.603 26.981 17.223
32.011 26.309 18.516
32.097 27.031 19.544
32.234 25.076 18.507
30.676 27.28 17.322
33.444 28.03 15.112
31.718 26.33 16.5
32.983 30.601 16.188
32.052 28.976 17.371
33.371 28.016 17.293
30.355 28.943 14.655
29.178 28.664 13.848
29.114 29.531 12.6
28.029 29.857 12.119
27.899 28.745 14.687
27.898 27.551 15.624
27.722 26.285 15.096
28.15 27.689 16.976
27.743 25.17 15.908
28.174 26.577 17.799
27.962 25.319 17.266
27.967 24.512 17.86
29.256 27.705 13.533
27.598 24.257 15.511
28.346 26.691 18.792
30.444 29.77 15.276
28.317 28.596 17.362
27.579 26.173 14.113
27.145 28.662 14.098
27.937 29.543 15.221
30.303 29.843 12.067
30.38 30.615 10.828
29.336 30.072 9.859
29.38 28.891 9.556
31.779 30.52 10.228
31.898 30.973 8.794
31.452 32.219 8.39
32.464 30.13 7.839
31.559 32.61 7.065
32.582 30.512 6.514
32.12 31.755 6.135
32.227 32.172 4.832
30.153 31.564 11.033
31.23 33.516 6.781
32.994 29.899 5.845
31.121 29.503 12.589
32.793 29.227 8.122
31.048 32.845 9.056
32.077 29.562 10.277
32.398 31.081 10.785
31.332 32.478 4.509
28.452 30.921 9.351
27.369 30.517 8.483
27.748 29.899 7.16
26.883 29.326 6.488
28.611 31.921 9.639
26.758 29.857 8.997
26.76 31.336 8.307
28.985 30.034 6.693
29.424 29.45 5.434
28.572 29.861 4.243
28.322 29.046 3.36
29.431 27.916 5.572
30.431 27.439 6.614
30.519 25.94 6.754
30.236 25.208 5.785
30.887 25.466 7.848
31.327 27.77 6.352
30.393 29.712 5.259
30.159 27.808 7.492
29.617 30.598 7.31
29.694 27.543 4.71
28.541 27.643 5.862
28.18 31.126 4.171
27.44 31.63 3.01
28.012 33.001 2.661
28.933 33.451 3.365
25.946 31.626 3.279
25.568 32.424 4.51
27.641 31.026 2.248
28.434 31.715 4.984
25.648 30.682 3.41
25.478 32.021 2.491
25.518 33.643 4.391
25.311 31.788 5.654
25.06 32.266 6.464
25.383 30.775 5.67
27.553 33.655 1.607
28.104 34.964 1.249
27.715 36.037 2.259
28.486 36.955 2.545
27.662 35.315 -0.174
27.956 34.259 -1.25
27.779 34.82 -2.654
29.372 33.713 -1.119
29.485 33.29 -0.22
29.534 33.03 -1.831
30.029 34.46 -1.22
26.804 33.186 1.079
28.405 35.588 -2.789
27.978 34.107 -3.327
26.837 35.135 -2.772
29.111 34.892 1.232
27.332 33.484 -1.12
28.13 36.149 -0.444
26.677 35.458 -0.163
26.498 35.934 2.794
25.948 36.851 3.769
26.709 36.793 5.094
27.191 37.817 5.604
24.453 36.582 3.975
23.605 37.142 2.846
23.851 38.298 2.444
22.668 36.444 2.38
25.956 35.098 2.431
26.066 37.787 3.408
24.178 37.011 4.824
24.321 35.6 4.017
27.031 35.591 5.557
27.886 35.416 6.725
29.318 35.846 6.429
30.03 36.285 7.329
27.879 33.972 7.213
26.626 34.795 5.021
27.529 35.985 7.477
27.414 33.396 6.542
28.82 33.655 7.33
27.399 33.918 8.088
29.769 35.732 5.177
31.144 36.125 4.863
31.309 37.633 4.974
32.283 38.108 5.553
31.583 35.638 3.484
33.01 35.972 3.061
34.049 35.347 3.98
33.268 35.482 1.63
32.628 35.93 1.009
34.204 35.708 1.369
33.137 34.493 1.593
29.102 35.365 4.495
33.95 34.351 3.97
34.966 35.593 3.665
33.917 35.684 4.913
31.759 35.686 5.525
33.125 36.973 3.063
30.969 36.041 2.808
31.493 34.642 3.469
30.341 38.363 4.42
30.327 39.811 4.455
30.305 40.336 5.882
31.032 41.249 6.252
29.084 40.337 3.734
28.869 41.808 3.895
27.955 42.414 4.715
29.582 42.859 3.229
28.064 43.774 4.585
29.049 44.078 3.682
30.618 42.879 2.288
29.509 45.313 3.234
31.074 44.114 1.844
30.523 45.317 2.314
30.883 46.179 1.967
31.179 40.141 4.024
27.506 44.451 5.077
31.02 42.04 1.945
31.813 44.142 1.172
29.101 46.163 3.582
27.315 41.942 5.309
29.592 37.793 3.957
28.282 39.877 4.1
29.176 40.155 2.761
29.41 39.759 6.675
29.227 40.082 8.077
30.487 39.762 8.879
30.762 40.472 9.859
28.022 39.335 8.644
27.832 39.585 10.129
27.482 40.732 10.482
28.023 38.644 10.936
28.827 39.024 6.183
29.085 41.077 8.143
28.164 38.364 8.5
27.212 39.646 8.163
31.221 38.713 8.493
32.487 38.454 9.186
33.551 39.438 8.723
34.16 40.099 9.579
32.958 37.014 9.069
31.892 35.843 9.958
30.849 38.155 7.734
32.338 38.59 10.169
33.872 36.948 9.452
32.962 36.758 8.11
31.181 36.349 10.444
33.707 39.695 7.419
34.705 40.672 6.987
34.457 42.06 7.556
35.427 42.793 7.79
34.823 40.741 5.458
35.263 39.436 4.781
35.172 39.527 3.267
36.663 39.028 5.219
36.677 38.891 6.21
36.922 38.177 4.763
37.313 39.747 4.974
33.096 39.172 6.787
35.763 40.265 2.939
35.466 38.661 2.86
34.227 39.716 2.998
35.616 40.356 7.3
34.675 38.69 5.107
35.495 41.432 5.235
33.932 40.978 5.094
33.212 42.481 7.759
32.921 43.813 8.267
32.473 43.883 9.718
31.969 44.929 10.138
31.812 44.447 7.395
30.639 43.626 7.527
32.267 44.497 5.939
33.77 44.384 8.17
31.48 44.677 5.345
32.944 45.227 5.821
32.475 41.783 7.525
31.599 45.366 7.757
32.679 43.62 5.684
30.78 42.743 7.069
32.63 42.826 10.5
32.194 42.802 11.881
32.777 41.651 12.679
32.135 41.185 13.625
33.096 42.011 10.033
32.448 43.681 12.331
31.177 42.747 11.913
33.984 41.198 12.354
34.606 40.109 13.099
36.108 40.031 12.852
36.915 40.21 13.762
33.966 38.776 12.733
34.471 37.579 13.485
35.584 36.838 13.198
33.874 36.968 14.627
35.72 35.819 14.104
34.685 35.876 14.993
32.73 37.239 15.384
34.392 35.049 16.08
32.438 36.42 16.468
33.262 35.339 16.809
33.019 34.775 17.595
34.469 40.293 14.083
36.457 35.143 14.114
32.132 38.003 15.158
31.623 36.61 17.01
34.99 34.278 16.307
36.208 37.014 12.437
34.43 41.672 11.55
34.122 38.596 11.759
32.979 38.831 12.902
36.461 39.714 11.608
37.839 39.565 11.174
38.755 40.686 11.633
38.4 41.85 11.774
37.893 39.43 9.635
39.302 39.33 9.071
37.093 38.19 9.219
38.198 38.692 11.56
39.608 40.234 8.774
36.925 37.627 10.025
37.479 40.263 9.245
39.921 38.985 9.777
39.306 38.705 8.291
35.642 39.579 10.959
36.226 38.482 8.821
37.62 37.674 8.547
40.004 40.312 11.874
41.075 41.219 12.232
41.716 41.815 10.986
41.82 41.148 9.952
42.145 40.447 13.009
43.357 41.264 13.415
44.438 40.418 14.058
44.195 39.231 14.365
45.554 40.957 14.252
43.74 41.672 12.608
40.717 41.962 12.81
43.073 41.934 14.075
40.154 39.267 11.78
42.46 39.71 12.432
41.724 40.104 13.835
42.169 43.056 11.08
42.858 43.766 10.006
44.139 44.379 10.563
44.246 44.551 11.784
41.934 44.866 9.456
40.754 44.305 8.683
40.985 43.583 7.516
39.446 44.439 9.121
39.945 43.042 6.794
38.399 43.898 8.403
38.652 43.203 7.239
37.625 42.653 6.502
43.109 43.105 9.3
40.127 42.532 5.948
37.456 44.01 8.726
41.987 43.504 12.021
39.26 44.934 9.969
41.929 43.456 7.197
42.463 45.438 8.844
41.586 45.389 10.221
36.773 42.742 7.013
45.109 44.703 9.718
45.019 44.525 8.29
45.027 43.081 7.826
45.58 42.201 8.491
46.261 45.21 7.722
47.188 45.408 8.854
46.389 45.341 10.119
47.915 44.695 8.852
44.194 45.011 7.916
46.214 46.255 10.498
46.846 44.785 10.819
47.661 46.306 8.777
46.011 46.094 7.294
46.681 44.634 7.001
44.489 42.875 6.622
44.417 41.51 6.096
44.986 41.431 4.686
44.743 42.256 3.809
42.976 40.99 6.134
42.63 39.723 5.363
43.276 38.5 5.997
41.122 39.502 5.277
40.698 40.278 4.811
40.937 38.664 4.765
40.745 39.42 6.199
44.154 43.703 6.132
42.951 38.399 6.938
43.033 37.683 5.472
44.27 38.61 5.999
44.961 40.909 6.694
42.954 39.815 4.418
42.381 41.725 5.786
42.74 40.826 7.101
45.758 40.372 4.478
46.3 40.019 3.178
45.666 38.674 2.814
45.998 37.67 3.457
47.826 39.84 3.167
48.318 39.286 1.83
48.563 41.124 3.498
45.997 40.686 2.516
48.313 40.016 1.148
48.393 41.368 4.453
48.06 39.163 3.863
49.247 38.935 1.939
47.713 38.548 1.535
45.945 39.805 5.345
49.544 40.99 3.356
48.236 41.858 2.902
44.829 38.628 1.793
44.338 37.339 1.294
45.109 36.936 0.043
45.009 37.632 -0.975
42.843 37.409 1.022
42.18 36.247 0.278
41.932 35.069 1.2
40.884 36.715 -0.38
41.086 37.447 -1.029
40.461 35.949 -0.862
40.259 37.054 0.322
44.559 39.536 1.391
41.33 35.348 1.95
41.499 34.325 0.688
42.802 34.747 1.577
44.491 36.646 2.001
42.779 35.962 -0.475
42.665 38.241 0.485
42.372 37.497 1.908
45.874 35.854 0.099
46.597 35.344 -1.062
45.855 34.134 -1.635
45.788 33.085 -0.993
48.015 34.951 -0.681
49.019 34.784 -1.815
50.257 34.028 -1.349
50.632 34.206 -0.161
50.847 33.253 -2.134
48.601 34.258 -2.522
46.662 36.056 -1.762
49.307 35.669 -2.106
45.915 35.4 1.039
47.97 34.08 -0.197
48.373 35.657 -0.073
45.242 34.271 -2.797
44.475 33.207 -3.429
45.259 32.573 -4.573
45.247 33.099 -5.692
43.157 33.776 -3.957
42.046 32.809 -4.21
42.141 31.529 -4.672
40.643 33.062 -4.041
40.892 30.965 -4.777
39.954 31.888 -4.39
39.9 34.168 -3.615
38.567 31.793 -4.344
38.524 34.061 -3.558
37.873 32.879 -3.915
36.873 32.843 -3.849
44.314 32.491 -2.74
40.697 30.035 -5.084
40.352 35.019 -3.356
37.989 34.848 -3.255
38.111 30.938 -4.625
42.996 31.064 -4.903
45.355 35.222 -3.233
43.339 34.252 -4.828
42.813 34.455 -3.295
45.918 31.444 -4.313
46.686 30.795 -5.363
45.831 29.835 -6.187
44.899 29.229 -5.66
47.868 30.001 -4.833
48.816 30.793 -3.95
49.527 29.81 -3.018
50.399 30.556 -2.115
51.09 30.001 -1.12
51.008 28.697 -0.898
51.86 30.799 -0.389
48.308 31.425 -3.397
47.058 31.503 -5.983
50.484 31.547 -2.251
49.495 31.237 -4.502
52.381 30.406 0.385
51.928 31.768 -0.595
45.836 31.095 -3.351
50.066 29.201 -3.572
48.842 29.332 -2.499
51.522 28.292 -0.129
50.447 28.118 -1.482
48.39 29.655 -5.611
47.518 29.234 -4.297
46.218 29.7 -7.46
45.504 28.802 -8.358
44.025 29.159 -8.437
43.187 28.274 -8.273
45.606 27.355 -7.875
46.672 26.553 -8.601
48.03 26.982 -8.089
46.544 25.598 -8.404
45.895 28.908 -9.281
46.617 26.746 -9.564
47.033 30.266 -7.733
44.725 26.905 -8.019
45.826 27.356 -6.901
48.763 26.951 -9.97
48.19 27.189 -6.885
48.989 27.14 -8.993
49.923 27.44 -8.721
43.735 30.431 -8.696
42.346 30.866 -8.736
41.547 30.086 -9.764
40.52 29.495 -9.41
42.261 32.383 -8.923
40.849 32.883 -8.783
40.301 33.086 -7.531
40.069 33.121 -9.908
38.999 33.525 -7.395
38.768 33.57 -9.774
38.232 33.769 -8.514
37.288 34.09 -8.414
41.946 30.656 -7.834
38.615 33.664 -6.471
38.211 33.75 -10.602
44.54 31.047 -8.857
40.453 32.967 -10.817
40.849 32.916 -6.714
42.572 32.594 -9.828
42.805 32.804 -8.226
42.007 30.008 -11.003
41.319 29.309 -12.081
40.961 27.871 -11.743
39.818 27.45 -11.959
42.141 29.358 -13.371
41.385 28.995 -14.639
40.094 29.766 -14.838
40.071 30.99 -14.594
39.093 29.122 -15.216
41.969 29.189 -15.413
40.471 29.818 -12.325
41.153 28.034 -14.597
42.928 30.502 -11.148
42.888 28.717 -13.275
42.475 30.283 -13.477
41.906 27.13 -11.172
41.637 25.759 -10.744
40.534 25.691 -9.698
39.623 24.863 -9.827
42.911 25.11 -10.217
43.848 24.621 -11.314
44.79 23.577 -10.745
43.312 24.209 -12.032
41.328 25.237 -11.553
44.378 25.384 -11.645
42.823 27.596 -11.06
42.664 24.323 -9.649
43.409 25.776 -9.66
44.088 22.21 -12.054
45.528 23.872 -9.807
44.753 22.369 -11.296
45.366 21.625 -10.973
40.566 26.579 -8.707
39.525 26.628 -7.682
38.164 26.997 -8.264
37.129 26.567 -7.752
39.951 27.519 -6.52
39.452 28.833 -6.561
41.381 27.223 -8.725
39.447 25.707 -7.273
40.964 27.556 -6.501
39.65 27.083 -5.655
39.659 29.246 -7.449
38.094 27.69 -9.386
36.867 28.008 -10.089
36.182 26.807 -10.733
34.955 26.823 -10.898
37.172 29.083 -11.145
36.14 29.239 -12.237
36.003 30.654 -12.759
34.532 31.043 -12.864
33.99 30.825 -14.238
36.211 28.435 -9.431
34.004 30.493 -12.212
34.435 32.013 -12.623
36.385 28.632 -13.01
35.24 28.935 -11.886
34.241 31.599 -14.817
34.375 29.984 -14.614
32.995 30.748 -14.191
36.407 30.71 -13.662
36.448 31.277 -12.131
39.045 28.006 -9.743
38.055 28.852 -11.569
37.267 29.962 -10.667
36.878 25.736 -11.077
36.342 24.578 -11.76
35.369 23.681 -11.018
34.642 22.888 -11.633
37.52 23.678 -12.21
38.711 24.202 -12.713
39.847 23.22 -12.988
38.556 24.705 -13.603
35.855 24.919 -12.614
39.106 24.917 -12.079
37.905 25.8 -10.798
37.099 23.002 -12.899
37.715 23.053 -11.387
40.855 24.574 -14.055
39.79 22.076 -12.54
40.887 23.6 -13.703
41.661 22.995 -13.898
35.382 23.718 -9.701
34.576 22.854 -8.857
33.799 23.631 -7.799
33.455 23.074 -6.756
35.444 21.801 -8.172
36.936 22.021 -7.976
37.706 21.468 -9.173
37.331 23.467 -7.727
36.878 23.802 -6.9
38.323 23.529 -7.609
37.055 24.03 -8.507
36.04 24.442 -9.301
37.41 21.938 -10.004
38.685 21.617 -9.036
37.526 20.489 -9.26
33.909 22.362 -9.44
37.233 21.549 -7.149
35.337 20.934 -8.695
35.044 21.634 -7.249
33.571 24.915 -8.057
32.796 25.755 -7.153
31.667 26.403 -7.964
30.812 27.112 -7.441
33.58 26.882 -6.467
34.121 27.779 -7.449
34.708 26.357 -5.597
32.385 25.182 -6.452
34.332 25.822 -4.836
35.315 25.771 -6.141
33.987 25.261 -8.945
32.942 27.415 -5.87
35.239 27.124 -5.226
35.118 27.666 -7.513
31.696 26.135 -9.265
30.755 26.766 -10.192
31.088 28.252 -10.131
32.254 28.637 -10.25
29.304 26.478 -9.839
28.78 25.12 -10.266
27.64 25.182 -11.263
27.293 26.274 -11.761
27.048 24.124 -11.587
29.52 24.622 -10.692
30.9 26.428 -11.102
28.446 24.649 -9.463
32.422 25.459 -9.56
28.742 27.166 -10.281
29.216 26.534 -8.852
30.113 29.082 -9.823
30.261 30.52 -9.66
30.819 30.925 -8.297
31.036 32.109 -8.017
28.855 31.124 -9.804
28.786 32.371 -10.649
30.932 30.834 -10.356
29.172 28.6 -9.698
28.516 31.339 -8.882
28.258 30.424 -10.211
29.752 33.134 -10.75
27.623 32.612 -11.256
27.516 33.42 -11.834
26.856 31.981 -11.13
30.997 29.976 -7.388
31.409 30.208 -6.027
32.654 31.057 -5.863
32.584 32.161 -5.32
30.803 29 -7.765
30.638 30.649 -5.51
31.561 29.305 -5.56
33.795 30.565 -6.327
35.061 31.275 -6.248
34.895 32.754 -6.564
35.181 33.61 -5.733
36.097 30.668 -7.19
33.704 29.611 -6.76
35.427 31.186 -5.31
37.014 30.904 -6.872
35.993 29.674 -7.202
35.96 31.029 -8.111
34.379 33.052 -7.743
34.124 34.41 -8.178
33.234 35.176 -7.208
33.533 36.334 -6.92
33.519 34.425 -9.593
33.696 35.776 -10.264
35.16 36.079 -10.549
35.802 35.319 -11.316
35.657 37.076 -9.994
33.226 35.76 -11.122
35.003 34.906 -8.285
33.364 36.47 -9.659
34.168 32.213 -8.343
32.565 34.254 -9.508
33.994 33.761 -10.123
32.164 34.57 -6.714
31.259 35.181 -5.766
31.975 35.563 -4.456
31.573 36.538 -3.83
30.144 34.23 -5.313
29.292 33.802 -6.342
32.029 33.588 -7.079
30.898 36.034 -6.168
29.596 34.701 -4.606
30.573 33.423 -4.883
29.79 33.198 -6.967
32.87 34.686 -4.009
33.552 34.911 -2.733
34.578 36.017 -2.891
34.702 36.876 -2.008
34.138 33.594 -2.198
35.296 33.773 -1.236
33.022 32.791 -1.535
32.868 35.21 -2.065
34.98 33.629 -0.297
33.306 32.534 -0.612
34.491 33.075 -2.99
36.015 33.11 -1.447
35.665 34.699 -1.322
33.034 33.871 -4.613
32.196 33.352 -1.491
32.844 31.969 -2.075
35.266 36.043 -4.033
36.233 37.101 -4.31
35.536 38.455 -4.375
36.007 39.456 -3.818
36.989 36.819 -5.608
37.806 37.979 -6.19
39.073 38.221 -5.38
38.118 37.719 -7.655
37.265 37.631 -8.17
38.651 38.481 -8.025
38.645 36.873 -7.741
35.059 35.268 -4.686
39.639 37.396 -5.39
39.586 38.981 -5.781
38.829 38.445 -4.436
36.905 37.125 -3.564
37.243 38.807 -6.182
36.323 36.551 -6.299
37.624 36.068 -5.437
34.363 38.496 -5.004
33.579 39.727 -5.098
33.263 40.301 -3.725
33.407 41.51 -3.516
32.331 39.45 -5.936
31.394 40.623 -6.126
32.007 41.732 -6.963
30.564 40.304 -6.584
34.132 40.408 -5.598
31.157 40.997 -5.229
34.058 37.592 -5.416
31.812 38.701 -5.498
32.623 39.131 -6.849
30.419 42.915 -6.497
33.084 41.578 -7.554
31.297 42.859 -6.995
31.643 43.67 -7.526
32.882 39.463 -2.762
32.636 39.879 -1.387
33.88 40.509 -0.762
33.813 41.603 -0.199
32.124 38.72 -0.512
31.904 39.174 0.932
30.821 38.149 -1.059
31.908 40.577 -1.394
31.036 39.664 0.995
30.216 37.922 -0.297
32.833 38.019 -0.489
31.882 38.374 1.53
32.651 39.777 1.206
32.774 38.468 -3.083
30.384 38.83 -1.646
31.02 37.325 -1.589
35.051 39.898 -0.88
36.293 40.481 -0.404
36.544 41.841 -1.053
36.955 42.786 -0.389
37.505 39.595 -0.719
37.687 38.528 0.322
38.37 38.798 1.494
37.107 37.28 0.14
38.505 37.82 2.459
37.244 36.303 1.099
37.946 36.575 2.255
38.053 35.862 2.958
36.184 40.649 0.583
39.012 38.021 3.306
36.831 35.388 0.952
35.002 38.961 -1.345
36.587 37.096 -0.694
38.765 39.698 1.646
38.301 40.164 -0.719
37.343 39.16 -1.58
36.334 41.925 -2.367
36.47 43.174 -3.091
35.493 44.247 -2.624
35.879 45.42 -2.63
36.247 42.972 -4.593
37.267 42.057 -5.25
38.02 42.844 -6.317
37.426 42.674 -7.614
37.191 43.539 -8.576
37.532 44.808 -8.502
36.592 43.085 -9.677
36.806 41.306 -5.69
37.416 43.526 -2.964
37.122 41.683 -7.841
37.918 41.746 -4.578
36.381 43.733 -10.429
36.354 42.125 -9.766
36.067 41.024 -2.818
38.961 42.514 -6.326
37.998 43.805 -6.055
37.323 45.445 -9.242
38.016 45.151 -7.685
36.297 43.861 -5.037
35.344 42.573 -4.722
34.268 43.885 -2.253
33.306 44.896 -1.808
33.631 45.348 -0.385
33.43 46.492 0.008
31.878 44.382 -1.925
31.26 44.333 -3.312
29.866 43.733 -3.335
29.117 43.832 -2.331
29.474 43.141 -4.363
31.191 45.256 -3.653
33.337 45.686 -2.426
31.833 43.773 -3.888
34.065 42.88 -2.303
31.298 44.97 -1.363
31.861 43.451 -1.56
34.215 44.442 0.4
34.629 44.724 1.775
35.779 45.721 1.714
35.849 46.676 2.478
34.973 43.44 2.503
34.353 43.508 -0.053
33.869 45.14 2.262
34.409 42.692 2.152
35.939 43.22 2.361
34.801 43.551 3.483
36.656 45.539 0.731
37.738 46.481 0.478
37.162 47.773 -0.102
37.639 48.852 0.273
38.813 45.913 -0.448
40.029 46.819 -0.564
40.856 46.273 -1.808
39.96 46.138 -3.043
40.71 45.809 -4.264
38.196 46.695 1.342
39.276 45.418 -2.859
39.466 47.009 -3.172
39.758 47.727 -0.773
40.594 46.734 0.219
41.613 45.446 -4.022
40.211 45.12 -4.795
40.828 46.632 -4.824
41.21 45.389 -1.56
41.573 46.922 -1.991
36.503 44.677 0.167
38.418 45.8 -1.352
39.108 45.038 -0.085
36.08 47.749 -0.866
35.466 49.016 -1.291
34.853 49.727 -0.089
34.927 50.94 0.066
34.461 48.821 -2.406
35.725 46.826 -1.123
36.179 49.601 -1.683
33.844 48.066 -2.178
33.925 49.658 -2.529
34.939 48.608 -3.259
34.254 48.994 0.832
33.633 49.476 2.04
34.548 50.206 3.018
34.055 51.039 3.789
32.984 48.311 2.814
31.765 48.745 3.61
30.649 49.307 2.756
30.704 49.225 1.514
29.69 49.849 3.336
31.41 47.956 4.084
32.848 50.099 1.797
32.043 49.452 4.241
34.27 47.945 0.59
33.649 47.969 3.442
32.695 47.647 2.157
35.84 49.903 3.016
36.789 50.57 3.886
37.692 49.598 4.622
38.54 50.03 5.408
36.107 49.153 2.342
37.361 51.206 3.337
36.286 51.135 4.564
37.462 48.297 4.461
38.305 47.322 5.148
39.718 47.292 4.581
39.92 47.381 3.363
37.705 45.918 5.056
36.022 45.845 5.698
36.681 48.054 3.844
38.363 47.587 6.121
38.271 45.304 5.589
37.69 45.649 4.103
35.918 45.034 6.275
40.697 47.116 5.467
42.088 47.051 5.024
42.436 45.62 4.649
42.917 44.831 5.438
43.064 47.612 6.047
44.476 47.735 5.517
44.874 47.071 4.542
45.224 48.543 6.102
40.399 47.034 6.447
42.159 47.602 4.19
43.071 47.004 6.836
42.745 48.517 6.317
42.146 45.321 3.392
42.299 44.026 2.766
43.19 44.132 1.528
42.952 44.955 0.648
40.934 43.466 2.297
39.992 43.192 3.462
41.113 42.188 1.48
38.565 42.828 3.093
42.793 43.446 3.419
40.223 41.9 1.136
41.731 42.377 0.72
40.511 44.156 1.707
40.38 42.444 4.017
39.967 44.014 4.048
38.57 41.999 2.537
41.768 46.165 2.848
38.04 42.671 3.927
41.499 41.482 2.069
38.158 43.578 2.575
44.181 43.26 1.429
45.056 43.218 0.261
44.816 41.871 -0.416
45.036 40.85 0.231
46.543 43.384 0.598
46.77 44.671 1.192
47.409 43.265 -0.646
44.788 43.936 -0.365
48.361 43.09 -0.383
47.082 42.508 -1.218
44.283 42.617 2.24
46.811 42.67 1.279
47.366 44.117 -1.174
46.174 44.795 1.992
44.335 41.866 -1.65
44.046 40.616 -2.351
45.121 40.262 -3.363
45.407 41.028 -4.287
42.687 40.677 -3.08
41.554 40.952 -2.084
42.407 39.385 -3.837
40.302 41.5 -2.727
44.058 39.892 -1.648
41.544 39.48 -4.329
43.152 39.22 -4.48
42.719 41.432 -3.725
41.335 40.099 -1.615
41.886 41.611 -1.411
39.957 40.843 -3.397
44.184 42.803 -2.068
39.608 41.655 -2.025
42.347 38.634 -3.183
40.513 42.363 -3.184
45.723 39.084 -3.234
46.737 38.628 -4.18
46.2 37.462 -5.002
46.067 36.366 -4.453
48.033 38.199 -3.472
48.633 39.384 -2.707
49.025 37.62 -4.48
49.957 39.095 -2.032
46.887 39.384 -4.819
49.835 37.308 -3.99
48.593 36.855 -4.952
47.805 37.493 -2.813
48.754 40.144 -3.349
47.972 39.67 -2.008
50.628 38.825 -2.721
45.414 38.524 -2.414
50.274 39.916 -1.56
49.271 38.332 -5.133
49.837 38.354 -1.373
45.987 37.664 -6.303
45.518 36.599 -7.175
46.607 35.99 -8.054
47.18 36.612 -8.95
44.403 37.072 -8.112
43.156 37.689 -7.48
42.374 38.493 -8.505
42.275 36.624 -6.852
42.786 36.141 -6.14
41.467 37.052 -6.446
41.986 35.97 -7.552
46.183 38.631 -6.628
42.092 37.895 -9.256
41.562 38.889 -8.073
42.949 39.228 -8.865
45.128 35.856 -6.596
43.435 38.289 -6.729
44.104 36.282 -8.652
44.795 37.76 -8.728
46.869 34.713 -7.809
47.85 33.957 -8.58
47.199 32.616 -8.91
45.956 32.588 -9.064
49.16 33.759 -7.836
48.998 32.84 -6.761
47.92 31.601 -8.933
46.319 34.299 -7.025
48.014 34.434 -9.431
49.461 34.633 -7.466
49.842 33.398 -8.464
48.055 32.875 -6.437
