47.586 46.159 11.451
48.094 45.618 10.156
47.734 44.136 10.028
48.536 43.253 10.342
49.616 45.8 10.076
50.137 46.46 8.793
49.968 45.473 7.275
49.217 46.682 6.162
48.43 47.099 6.614
49.89 47.385 5.939
48.922 46.22 5.327
47.992 45.639 12.199
47.844 47.12 11.522
49.656 47.373 8.687
51.129 46.719 8.948
46.593 46.069 11.47
47.637 46.118 9.422
50.059 44.892 10.163
49.921 46.362 10.863
46.514 43.877 9.567
46.023 42.516 9.383
46.295 42.028 7.953
46.029 42.73 6.973
44.521 42.467 9.679
43.914 41.073 9.668
44.362 40.248 10.863
43.78 38.842 10.8
44.111 38.025 12.003
46.5 41.905 10.023
42.779 38.909 10.714
44.138 38.379 9.98
42.915 41.152 9.686
44.191 40.602 8.827
44.272 38.632 12.78
43.348 37.413 12.207
44.933 37.487 11.821
44.044 40.684 11.695
45.352 40.181 10.856
45.944 44.723 9.351
44.051 43.021 8.989
44.369 42.869 10.583
46.835 40.82 7.849
47.15 40.217 6.563
46.232 39.021 6.313
45.962 38.242 7.224
48.612 39.758 6.556
49.027 38.946 5.332
48.978 39.779 4.061
49.421 38.968 2.855
50.81 38.453 2.999
47 40.892 5.837
48.793 38.191 2.736
49.369 39.548 2.035
49.961 38.613 5.466
48.407 38.167 5.234
51.401 38.901 2.329
51.142 38.648 3.922
50.815 37.466 2.843
49.588 40.557 4.162
48.044 40.085 3.913
47.012 40.345 8.762
48.766 39.196 7.371
49.194 40.571 6.603
45.754 38.882 5.081
44.881 37.768 4.717
45.286 37.2 3.355
45.489 37.946 2.396
43.445 38.226 4.684
46.049 39.619 4.412
44.975 37.043 5.405
43.131 38.431 5.613
43.363 39.051 4.122
42.866 37.507 4.295
45.407 35.878 3.28
45.795 35.219 2.04
44.762 34.219 1.538
44.168 33.469 2.312
47.15 34.485 2.19
47.51 33.773 0.885
48.25 35.489 2.57
45.907 35.934 1.326
46.897 34.082 0.16
48.779 35.712 1.754
47.037 33.783 2.881
48.454 33.989 0.641
47.413 32.787 1.009
45.205 35.37 4.162
47.823 36.312 2.936
48.841 35.075 3.259
44.559 34.222 0.226
43.619 33.318 -0.425
44.337 32.641 -1.585
44.767 33.307 -2.535
42.401 34.076 -1.013
41.557 34.677 0.104
41.568 33.139 -1.882
40.49 35.64 -0.4
43.41 32.604 0.237
40.816 33.656 -2.284
42.15 32.764 -2.601
42.751 34.817 -1.575
41.111 33.939 0.602
42.159 35.172 0.726
39.876 35.153 -1.017
45.129 34.925 -0.297
39.977 35.995 0.378
41.211 32.403 -1.311
40.931 36.391 -0.885
44.497 31.326 -1.498
45.128 30.594 -2.586
43.955 30.092 -3.415
43.291 29.111 -3.059
45.978 29.439 -2.057
47.157 29.92 -1.225
45.614 31.245 -3.138
44.151 30.892 -0.632
46.328 28.923 -2.833
45.405 28.86 -1.487
47.123 29.879 0.007
48.201 30.395 -1.895
49.007 30.72 -1.405
48.179 30.427 -2.896
43.701 30.807 -4.509
42.593 30.504 -5.396
42.468 29.102 -5.948
41.356 28.577 -6.053
44.365 31.597 -4.669
41.704 30.75 -4.909
42.617 31.175 -6.194
43.596 28.499 -6.31
43.586 27.157 -6.872
43.004 26.145 -5.889
42.59 25.057 -6.289
45.009 26.72 -7.271
45.815 26.059 -6.149
46.487 27.056 -5.22
45.963 28.181 -5.073
47.536 26.708 -4.629
45.196 25.517 -5.609
43.041 27.147 -7.722
46.522 25.512 -6.562
44.457 29.054 -6.16
45.5 27.525 -7.554
44.925 26.064 -8.001
42.962 26.508 -4.609
42.451 25.605 -3.58
40.994 25.819 -3.199
40.468 25.116 -2.339
43.324 25.701 -2.327
44.785 25.376 -2.587
45.652 25.574 -1.37
44.852 24.42 -2.879
42.541 24.65 -3.936
45.118 25.97 -3.321
43.314 27.461 -4.412
42.978 25.058 -1.645
43.27 26.632 -1.969
44.004 25.692 -0.206
46.876 25.599 -1.468
45.023 25.712 -0.209
45.545 25.836 0.658
40.34 26.783 -3.838
38.937 27.064 -3.547
38.019 26.307 -4.504
37.946 26.614 -5.695
38.652 28.57 -3.644
39.509 29.312 -2.617
37.175 28.843 -3.398
39.427 30.798 -2.734
38.76 26.696 -2.629
37.01 29.824 -3.477
36.637 28.35 -4.079
38.92 28.877 -4.546
39.212 29.032 -1.704
40.459 29.023 -2.743
38.48 31.099 -2.602
40.896 27.302 -4.539
40.007 31.228 -2.038
36.936 28.529 -2.481
39.738 31.087 -3.642
37.308 25.322 -3.974
36.424 24.522 -4.802
34.946 24.826 -4.62
34.106 24.238 -5.293
36.7 23.032 -4.569
38.123 22.63 -4.954
38.215 21.169 -5.376
39.45 20.889 -6.108
39.675 19.773 -6.795
38.746 18.825 -6.845
40.821 19.607 -7.441
38.727 22.765 -4.171
36.666 24.679 -5.783
40.175 21.586 -6.09
38.43 23.195 -5.718
41.002 18.766 -7.941
41.513 20.336 -7.427
37.435 25.181 -2.959
37.433 20.967 -5.959
38.185 20.608 -4.554
38.936 17.974 -7.355
37.872 18.949 -6.388
36.073 22.508 -5.125
36.576 22.838 -3.607
34.627 25.748 -3.722
33.237 26.125 -3.494
33.131 27.524 -2.901
34.087 28.045 -2.317
32.559 25.13 -2.552
33.123 25.19 -1.255
35.426 26.164 -3.213
32.764 26.13 -4.385
32.68 24.211 -2.916
31.59 25.351 -2.495
34.103 25.001 -1.308
31.963 28.134 -3.058
31.741 29.46 -2.51
31.869 29.343 -0.995
32.283 30.286 -0.316
30.338 29.99 -2.864
30.185 31.422 -2.355
29.266 29.096 -2.249
31.228 32.369 -2.894
32.498 30.024 -2.814
28.368 29.446 -2.507
29.384 28.167 -2.594
30.257 30.002 -3.852
29.279 31.753 -2.612
30.248 31.407 -1.358
31.168 32.399 -3.891
31.254 27.6 -3.585
31.071 33.284 -2.523
29.367 29.108 -1.257
32.137 32.052 -2.625
31.513 28.17 -0.476
31.596 27.915 0.952
33.061 27.878 1.361
33.418 28.349 2.441
30.917 26.588 1.298
31.534 25.511 0.621
31.179 27.472 -1.168
31.161 28.675 1.433
29.96 26.638 1.026
30.987 26.439 2.28
32.526 25.568 0.735
33.905 27.307 0.502
35.346 27.246 0.773
35.845 28.676 0.966
36.597 28.977 1.89
36.108 26.629 -0.409
36.194 25.118 -0.335
36.696 24.51 -1.304
35.771 24.537 0.686
33.468 26.92 -0.352
35.463 26.775 1.641
37.028 27.004 -0.407
35.632 26.884 -1.244
35.402 29.55 0.072
35.785 30.95 0.094
35.362 31.643 1.387
36.151 32.359 1.998
35.181 31.659 -1.12
35.608 33.097 -1.412
37.123 33.231 -1.334
35.101 33.481 -2.802
34.105 33.41 -2.823
35.373 34.42 -3.007
35.495 32.863 -3.481
34.757 29.144 -0.645
37.547 32.624 -2.006
37.385 34.177 -1.527
37.434 32.98 -0.417
36.792 31.012 0.018
35.187 33.705 -0.74
34.182 31.663 -1.004
35.406 31.112 -1.935
34.122 31.433 1.812
33.658 32.075 3.036
34.332 31.541 4.292
34.588 32.3 5.221
32.139 31.975 3.152
31.418 32.777 2.117
33.549 30.811 1.232
33.858 33.07 2.969
31.858 32.302 4.059
31.865 31.014 3.055
30.674 32.399 1.05
31.979 34.729 2.722
30.737 35.538 0.727
30.837 34.586 1.003
31.497 34.153 2.062
30.33 33.542 0.371
30.423 31.467 0.803
34.628 30.246 4.315
35.296 29.648 5.47
36.75 30.088 5.486
37.349 30.228 6.55
35.202 28.119 5.421
33.787 27.604 5.633
33.668 26.098 5.484
34.666 25.405 5.29
32.446 25.585 5.572
33.488 27.856 6.556
34.857 30 6.296
33.183 28.039 4.962
34.354 29.715 3.473
31.669 26.222 5.747
32.288 24.584 5.468
35.783 27.739 6.138
35.517 27.807 4.528
37.317 30.311 4.305
38.7 30.764 4.212
38.765 32.191 4.744
39.673 32.536 5.51
39.211 30.746 2.756
39.398 29.393 2.333
40.532 31.483 2.635
39.266 30.186 4.792
40.572 31.973 1.76
40.625 32.145 3.384
36.711 30.141 3.486
38.506 31.175 2.157
41.293 30.83 2.679
38.513 28.967 2.116
37.796 33.018 4.351
37.771 34.404 4.814
37.572 34.453 6.327
38.161 35.292 7.008
36.658 35.2 4.115
36.737 35.353 2.585
35.576 36.21 2.095
38.063 35.987 2.181
38.817 35.408 2.489
38.099 36.08 1.186
38.143 36.89 2.602
37.096 32.609 3.718
35.625 37.113 2.522
35.63 36.308 1.101
34.711 35.772 2.34
38.653 34.831 4.596
36.684 34.451 2.169
36.653 36.123 4.503
35.787 34.75 4.32
36.746 33.553 6.852
36.494 33.518 8.29
37.798 33.379 9.072
38.01 34.055 10.075
35.577 32.353 8.643
35.244 32.28 10.117
34.235 31.183 10.396
33.746 31.221 11.836
32.608 30.275 12.014
36.045 34.377 8.563
34.492 30.955 12.44
33.443 32.145 12.052
36.079 32.09 10.634
34.861 33.155 10.412
32.889 29.53 12.618
31.834 30.761 12.418
32.344 29.904 11.124
34.662 30.299 10.231
33.451 31.303 9.793
36.313 32.904 6.177
36.032 31.506 8.379
34.728 32.457 8.132
38.67 32.499 8.59
39.954 32.255 9.233
40.983 33.368 9.025
41.572 33.87 9.985
40.544 30.924 8.74
41.98 30.684 9.2
42.105 30.877 10.71
43.557 30.995 11.135
43.678 31.399 12.565
39.802 32.144 10.236
44.009 30.11 11.005
44.011 31.681 10.562
42.243 29.751 8.972
42.582 31.331 8.742
43.74 32.395 12.623
42.874 31.083 13.067
44.501 30.988 12.956
41.701 30.092 11.166
41.628 31.711 10.965
38.359 32.008 7.727
40.53 30.929 7.745
39.976 30.185 9.088
41.198 33.746 7.771
42.176 34.77 7.436
41.84 36.153 7.98
42.736 36.96 8.22
42.34 34.855 5.92
42.884 33.596 5.278
44.313 33.312 5.685
45.129 34.26 5.701
44.627 32.137 5.975
42.334 32.836 5.571
43.094 34.488 7.784
42.871 33.713 4.303
40.617 33.255 7.062
42.971 35.588 5.728
41.45 35.029 5.532
40.556 36.428 8.172
40.141 37.729 8.672
39.751 37.706 10.15
39.473 38.749 10.746
38.98 38.261 7.827
39.276 38.537 6.349
38.047 39.163 5.697
40.469 39.472 6.214
41.273 39.051 6.634
40.652 39.644 5.246
40.27 40.338 6.673
39.902 35.662 7.943
37.825 40.021 6.16
38.238 39.344 4.732
37.274 38.534 5.772
40.912 38.38 8.56
39.49 37.679 5.896
38.674 39.118 8.233
38.244 37.587 7.861
39.738 36.518 10.743
39.385 36.386 12.148
37.963 36.89 12.374
37.705 37.676 13.29
40.371 37.177 13.01
39.993 35.72 10.135
39.425 35.417 12.406
41.228 36.67 13.081
40.541 38.065 12.587
39.983 37.308 13.92
37.041 36.434 11.534
35.654 36.846 11.656
34.986 36.173 12.848
35.474 35.169 13.366
34.892 36.503 10.373
35.467 37.116 9.095
34.61 36.72 7.9
35.528 38.628 9.248
36.113 38.863 10.024
35.903 39.035 8.415
34.608 38.987 9.406
37.389 35.782 10.811
33.676 37.052 8.034
34.991 37.123 7.068
34.599 35.724 7.812
35.623 37.843 11.798
36.396 36.78 8.963
33.964 36.834 10.471
34.907 35.518 10.263
33.853 36.72 13.302
33.14 36.135 14.442
32.688 34.698 14.155
32.483 34.325 12.998
31.963 37.087 14.636
31.717 37.604 13.237
33.12 37.874 12.755
31.276 36.911 12.687
33.709 36.167 15.275
33.475 38.726 13.127
33.168 37.883 11.763
31.182 38.435 13.267
32.201 37.833 15.248
31.163 36.604 14.975
32.54 33.899 15.21
32.118 32.514 15.061
30.726 32.419 14.442
30.38 31.403 13.837
32.137 31.807 16.419
33.457 31.712 17.167
33.43 31.014 18.489
32.421 30.529 18.982
34.55 30.992 19.039
34.104 31.226 16.577
32.776 32.018 14.478
33.788 32.644 17.32
32.748 34.342 16.124
31.809 30.871 16.273
31.491 32.29 17.015
29.934 33.476 14.592
28.58 33.5 14.053
28.543 33.969 12.595
27.478 34.029 11.988
27.683 34.401 14.922
28.087 35.87 14.97
28.056 36.673 13.821
28.506 36.455 16.166
28.434 38.018 13.866
28.888 37.792 16.224
28.85 38.569 15.076
29.225 39.894 15.15
28.207 32.56 14.085
28.405 38.576 13.041
29.189 38.19 17.09
30.356 34.267 15.116
28.531 35.902 16.998
27.759 36.278 12.953
27.7 34.046 15.858
26.75 34.348 14.564
28.841 40.386 14.371
29.712 34.293 12.047
29.84 34.768 10.664
28.833 34.109 9.718
28.879 32.903 9.499
31.272 34.535 10.154
31.501 35.001 8.731
31.219 36.316 8.357
31.96 34.119 7.747
31.376 36.747 7.035
32.125 34.538 6.42
31.826 35.856 6.076
31.962 36.287 4.776
29.668 35.766 10.658
31.165 37.692 6.791
32.452 33.9 5.731
30.533 34.181 12.684
32.175 33.179 7.991
30.897 36.968 9.045
31.46 33.558 10.196
31.897 35.03 10.75
31.072 36.582 4.434
27.941 34.926 9.152
26.898 34.439 8.255
27.303 33.763 6.955
26.48 33.103 6.314
28.055 35.93 9.405
26.284 33.788 8.789
26.261 35.233 8.031
28.557 33.933 6.55
29.057 33.321 5.323
28.224 33.681 4.093
27.804 32.811 3.333
29.123 31.797 5.495
30.193 31.344 6.494
30.251 29.836 6.672
30.135 29.11 5.668
30.431 29.375 7.818
31.068 31.639 6.156
30.019 33.608 5.169
29.981 31.74 7.369
29.14 34.528 7.171
29.347 31.406 4.626
28.255 31.496 5.836
27.995 34.975 3.905
27.231 35.475 2.77
27.655 36.919 2.509
28.35 37.524 3.331
25.729 35.379 3.055
25.305 36.212 4.239
27.5 34.944 1.971
28.406 35.598 4.635
25.507 34.424 3.237
25.238 35.694 2.247
25.131 37.428 4.123
25.146 35.568 5.394
24.861 36.064 6.213
25.314 34.581 5.441
27.242 37.469 1.371
27.628 38.824 1.002
27.299 39.883 2.034
28.118 40.759 2.293
27.017 39.206 -0.347
27.492 38.359 -1.532
26.923 38.933 -2.822
29.021 38.341 -1.586
29.377 37.95 -0.739
29.318 37.786 -2.362
29.359 39.275 -1.693
26.638 36.864 0.786
27.239 39.875 -2.937
27.231 38.382 -3.598
25.924 38.92 -2.782
28.639 38.835 0.842
27.17 37.426 -1.413
27.259 40.146 -0.538
26.034 39.097 -0.28
26.107 39.808 2.621
25.699 40.78 3.634
26.525 40.635 4.93
26.886 41.632 5.563
24.205 40.638 3.93
23.325 41.082 2.752
23.481 42.228 2.267
22.465 40.284 2.32
25.511 39.023 2.306
25.897 41.698 3.268
23.986 41.204 4.713
24.014 39.684 4.119
26.831 39.399 5.317
27.636 39.166 6.517
29.043 39.718 6.269
29.65 40.315 7.15
27.705 37.667 6.834
26.464 38.644 4.717
27.231 39.66 7.281
27.197 37.161 6.14
28.659 37.375 6.833
27.304 37.503 7.732
29.551 39.519 5.059
30.879 40.005 4.709
30.986 41.533 4.795
31.962 42.061 5.328
31.259 39.537 3.302
32.641 39.992 2.843
33.699 39.48 3.817
32.911 39.476 1.431
32.219 39.837 0.807
33.817 39.777 1.135
32.873 38.477 1.429
28.937 39.002 4.404
33.67 38.481 3.844
34.603 39.78 3.513
33.515 39.845 4.729
31.55 39.608 5.354
32.668 40.987 2.821
30.596 39.905 2.669
31.253 38.548 3.298
29.989 42.245 4.274
30.007 43.704 4.33
30.039 44.18 5.781
30.807 45.079 6.141
28.775 44.273 3.626
28.577 45.736 3.852
27.72 46.31 4.729
29.261 46.81 3.191
27.818 47.679 4.661
28.759 48.012 3.725
30.252 46.87 2.196
29.207 49.263 3.305
30.702 48.124 1.774
30.177 49.3 2.33
30.521 50.181 2.005
30.853 44.018 3.891
27.288 48.327 5.207
30.63 46.043 1.797
31.4 48.174 1.072
28.826 50.101 3.708
27.101 45.817 5.342
29.231 41.694 3.843
27.966 43.807 3.967
28.871 44.133 2.647
29.205 43.557 6.61
29.118 43.898 8.023
30.44 43.634 8.761
30.831 44.403 9.643
27.985 43.104 8.675
27.742 43.506 10.116
27.338 44.667 10.353
27.954 42.66 11.007
28.627 42.813 6.164
28.946 44.891 8.085
28.229 42.142 8.648
27.155 43.268 8.153
31.132 42.562 8.392
32.4 42.233 9.039
33.495 43.211 8.643
34.286 43.642 9.482
32.825 40.813 8.692
30.711 42.002 7.635
32.273 42.278 10.039
33.619 40.841 8.086
33.063 40.321 9.529
32.073 40.342 8.233
33.545 43.561 7.365
34.564 44.487 6.887
34.363 45.899 7.427
35.319 46.644 7.616
34.573 44.515 5.352
34.979 43.203 4.666
34.953 43.37 3.147
36.377 42.791 5.123
36.378 42.66 6.114
36.635 41.937 4.673
37.03 43.507 4.88
32.825 43.135 6.76
35.593 44.09 2.882
35.219 42.509 2.714
34.03 43.619 2.857
35.469 44.156 7.195
34.338 42.487 4.931
35.217 45.212 5.064
33.654 44.737 5.046
33.116 46.256 7.703
32.808 47.594 8.176
32.477 47.746 9.662
32.327 48.869 10.147
31.657 48.18 7.343
30.508 47.33 7.45
32.069 48.275 5.881
33.618 48.201 7.974
32.185 47.354 5.5
31.363 48.76 5.359
32.405 45.518 7.556
31.411 49.096 7.719
32.936 48.774 5.804
30.656 46.477 6.939
32.368 46.632 10.384
32.058 46.7 11.805
32.619 45.558 12.638
31.951 45.068 13.551
32.517 45.754 9.866
32.406 47.587 12.181
31.041 46.73 11.924
33.84 45.13 12.333
34.48 44.043 13.071
35.974 43.901 12.743
36.832 44.05 13.618
33.756 42.725 12.781
34.396 41.529 13.421
35.514 40.864 12.994
33.977 40.877 14.625
35.817 39.836 13.863
34.889 39.823 14.871
32.917 41.079 15.521
34.772 38.972 15.977
32.8 40.232 16.622
33.723 39.191 16.837
33.603 38.604 17.637
34.409 44.256 14.057
36.585 39.207 13.771
32.258 41.811 15.381
32.053 40.369 17.26
35.437 38.236 16.12
36.036 41.087 12.174
34.291 45.625 11.54
33.752 42.569 11.8
32.828 42.785 13.129
36.272 43.606 11.481
37.635 43.434 11.007
38.57 44.575 11.422
38.143 45.724 11.582
37.637 43.277 9.457
38.942 43.781 8.856
37.434 41.811 9.098
38.004 42.576 11.406
39.698 43.573 9.477
37.86 41.626 8.213
36.906 43.852 9.101
39.1 43.332 7.977
38.886 44.77 8.719
35.434 43.508 10.857
37.855 41.238 9.801
36.455 41.617 9.048
39.845 44.235 11.607
40.871 45.204 11.984
41.569 45.769 10.757
41.771 45.07 9.768
41.929 44.558 12.881
43.242 45.342 12.908
44.317 44.7 13.767
44.562 43.48 13.613
44.926 45.424 14.59
43.586 45.392 11.986
40.449 45.955 12.508
43.057 46.236 13.28
40.046 43.221 11.46
42.124 43.669 12.525
41.579 44.539 13.794
41.954 47.036 10.842
42.649 47.711 9.755
43.945 48.309 10.294
44.067 48.54 11.495
41.748 48.801 9.172
40.551 48.232 8.44
40.729 47.42 7.319
39.251 48.478 8.876
39.646 46.863 6.648
38.153 47.924 8.21
38.364 47.116 7.094
37.304 46.55 6.418
42.885 47.034 9.059
39.798 46.281 5.847
37.228 48.106 8.53
41.718 47.501 11.745
39.097 49.054 9.673
41.658 47.234 6.989
42.28 49.336 8.529
41.419 49.366 9.916
36.482 46.624 6.979
44.933 48.565 9.419
44.939 48.34 7.969
44.792 46.87 7.622
45.201 45.997 8.387
46.305 48.871 7.54
46.602 49.915 8.556
46.165 49.252 9.837
47.573 50.124 8.579
44.216 48.89 7.523
45.971 49.923 10.547
46.842 48.598 10.157
46.073 50.738 8.385
46.26 49.262 6.622
46.989 48.143 7.56
44.215 46.597 6.461
44.042 45.223 6.016
44.656 45.024 4.641
44.566 45.893 3.771
42.552 44.857 5.976
42.116 43.585 5.234
42.87 42.365 5.751
40.617 43.397 5.417
40.132 44.188 5.044
40.322 42.57 4.937
40.407 43.308 6.391
43.908 47.421 5.916
42.684 42.247 6.726
42.569 41.552 5.253
43.852 42.496 5.612
44.51 44.613 6.665
42.302 43.701 4.258
42.061 45.628 5.554
42.236 44.765 6.929
45.302 43.881 4.457
45.888 43.551 3.173
45.372 42.182 2.778
45.653 41.182 3.452
47.421 43.491 3.216
47.948 42.963 1.88
47.986 44.865 3.481
45.566 44.21 2.5
47.324 43.233 1.149
47.687 45.184 4.383
47.683 42.831 3.907
48.853 43.347 1.707
48.008 41.967 1.919
45.348 43.265 5.289
48.987 44.827 3.458
47.662 45.503 2.78
44.602 42.151 1.694
44.044 40.913 1.174
44.805 40.505 -0.083
44.782 41.217 -1.088
42.566 41.091 0.822
41.968 39.87 0.108
41.772 38.728 1.099
40.646 40.245 -0.528
40.787 40.979 -1.194
40.256 39.449 -0.994
40.008 40.559 0.177
44.436 43.083 1.256
41.15 39.02 1.826
41.383 37.938 0.625
42.654 38.476 1.496
44.158 40.193 1.86
42.592 39.58 -0.613
42.485 41.857 0.214
42.065 41.218 1.657
45.485 39.366 -0.023
46.231 38.863 -1.171
45.467 37.691 -1.782
45.411 36.613 -1.207
47.615 38.395 -0.744
48.559 38.176 -1.912
49.805 37.429 -1.502
50.295 37.67 -0.377
50.295 36.607 -2.305
48.094 37.636 -2.586
46.335 39.585 -1.852
48.835 39.053 -2.255
45.44 38.877 0.89
47.514 37.537 -0.278
48.006 39.091 -0.172
44.877 37.907 -2.949
44.1 36.866 -3.611
44.878 36.245 -4.785
44.946 36.826 -5.867
42.783 37.467 -4.12
41.676 36.47 -4.391
41.801 35.212 -4.923
40.272 36.685 -4.205
40.559 34.636 -5.08
39.605 35.518 -4.645
39.511 37.755 -3.712
38.212 35.391 -4.602
38.129 37.627 -3.672
37.494 36.451 -4.114
36.497 36.4 -4.065
43.933 36.131 -2.944
40.384 33.726 -5.45
39.948 38.591 -3.395
37.581 38.381 -3.325
37.772 34.547 -4.922
42.665 34.776 -5.162
45.012 38.857 -3.341
42.956 37.947 -4.978
42.434 38.108 -3.438
45.456 35.065 -4.564
46.214 34.368 -5.602
45.293 33.473 -6.438
44.253 33.032 -5.959
47.307 33.505 -4.971
48.237 34.253 -4.041
49.118 33.285 -3.27
49.929 33.966 -2.266
50.678 33.349 -1.357
50.728 32.022 -1.318
51.372 34.061 -0.478
47.705 34.776 -3.384
46.635 35.048 -6.21
49.921 34.975 -2.261
48.826 34.855 -4.569
51.921 33.605 0.218
51.346 35.063 -0.514
45.323 34.689 -3.604
49.717 32.826 -3.922
48.528 32.619 -2.821
51.285 31.568 -0.611
50.222 31.478 -1.98
47.853 33.11 -5.707
46.865 32.776 -4.451
45.686 33.21 -7.684
44.903 32.365 -8.583
43.443 32.773 -8.609
42.567 31.913 -8.566
44.981 30.899 -8.153
46.372 30.31 -8.148
47.085 30.509 -9.467
46.908 30.75 -7.428
45.275 32.479 -9.515
46.308 29.329 -7.965
46.587 33.653 -7.957
44.409 30.353 -8.778
44.601 30.819 -7.224
48.825 30.815 -8.485
46.473 30.43 -10.535
48.388 30.758 -9.403
48.938 30.89 -10.252
43.181 34.076 -8.684
41.808 34.571 -8.692
40.962 33.902 -9.766
39.843 33.458 -9.502
41.774 36.088 -8.903
40.39 36.671 -8.841
39.771 36.896 -7.616
39.679 36.937 -10.009
38.46 37.373 -7.546
38.366 37.414 -9.953
37.756 37.631 -8.715
36.82 37.97 -8.671
41.401 34.321 -7.801
38.037 37.524 -6.648
37.864 37.598 -10.809
44.013 34.689 -8.735
40.11 36.787 -10.897
40.266 36.717 -6.769
42.146 36.276 -9.798
42.314 36.504 -8.189
41.502 33.832 -10.978
40.787 33.225 -12.097
40.325 31.808 -11.769
39.159 31.473 -11.956
41.68 33.213 -13.346
41.012 32.676 -14.612
39.746 33.441 -14.995
39.75 34.691 -14.919
38.752 32.786 -15.384
41.647 32.766 -15.356
39.985 33.792 -12.334
40.754 31.742 -14.452
42.453 34.237 -11.058
42.457 32.636 -13.154
41.953 34.144 -13.527
41.237 30.981 -11.273
40.897 29.607 -10.931
39.776 29.5 -9.91
38.932 28.604 -9.998
42.119 28.873 -10.395
43.137 28.493 -11.447
44.137 27.494 -10.909
42.664 28.084 -12.222
40.586 29.143 -11.781
43.626 29.311 -11.734
42.181 31.387 -11.155
41.813 28.03 -9.936
42.574 29.459 -9.716
45.66 28.681 -11.505
43.754 26.451 -10.376
45.424 27.804 -11.041
46.151 27.185 -10.69
39.772 30.405 -8.936
38.746 30.395 -7.904
37.461 30.994 -8.45
36.385 30.786 -7.891
39.206 31.188 -6.676
39.29 32.575 -6.956
40.541 31.096 -8.977
38.562 29.441 -7.655
40.106 30.857 -6.401
38.551 31.044 -5.939
39.514 32.707 -7.921
37.573 31.742 -9.541
36.398 32.358 -10.144
35.592 31.276 -10.847
34.374 31.382 -10.984
36.809 33.443 -11.144
35.643 34.277 -11.658
36.118 35.543 -12.354
34.951 36.49 -12.618
35.398 37.848 -13.039
35.836 32.763 -9.425
34.372 36.095 -13.34
34.403 36.569 -11.778
35.113 33.73 -12.308
35.059 34.531 -10.886
35.645 38.38 -12.23
36.192 37.763 -13.64
34.655 38.304 -13.527
36.529 35.3 -13.223
36.773 36.006 -11.771
38.531 31.845 -9.911
37.245 32.999 -11.923
37.456 34.053 -10.694
36.287 30.227 -11.273
35.661 29.11 -11.966
34.857 28.222 -11.024
33.675 27.972 -11.25
36.725 28.255 -12.66
37.58 28.992 -13.679
38.621 28.087 -14.319
38.653 27.925 -15.539
39.481 27.496 -13.496
36.987 29.35 -14.397
35.021 29.488 -12.653
38.05 29.743 -13.221
37.309 30.273 -11.07
39.404 27.691 -12.499
40.197 26.865 -13.852
36.266 27.493 -13.132
37.337 27.873 -11.958
35.504 27.749 -9.965
34.856 26.861 -9.008
33.837 27.517 -8.069
33.321 26.87 -7.153
35.923 26.124 -8.196
36.849 25.234 -9.032
37.828 24.513 -8.122
36.023 24.228 -9.818
35.394 24.713 -10.426
36.63 23.648 -10.363
35.499 23.657 -9.186
36.491 28.061 -9.88
37.325 23.945 -7.47
38.432 23.932 -8.67
38.378 25.183 -7.622
34.37 26.124 -9.531
37.35 25.805 -9.676
35.464 25.544 -7.542
36.488 26.8 -7.748
33.549 28.794 -8.298
32.578 29.515 -7.484
31.557 30.182 -8.401
30.673 30.906 -7.943
33.25 30.599 -6.627
33.886 31.553 -7.482
34.287 29.986 -5.707
32.098 28.86 -6.902
34.981 30.671 -5.468
33.848 29.659 -4.865
34.065 29.223 -9.09
32.533 31.083 -6.086
34.736 29.212 -6.163
34.848 31.302 -7.633
31.697 29.927 -9.701
30.811 30.469 -10.734
30.534 31.967 -10.6
29.391 32.385 -10.427
29.493 29.677 -10.757
28.718 29.685 -9.45
27.791 28.493 -9.306
28.292 27.349 -9.286
26.562 28.7 -9.209
29.363 29.651 -8.709
31.215 30.285 -11.652
28.164 30.497 -9.423
32.507 29.296 -9.927
29.715 28.739 -10.97
28.918 30.081 -11.45
31.592 32.768 -10.697
31.492 34.222 -10.588
31.116 34.687 -9.184
30.835 35.869 -8.964
30.485 34.777 -11.605
31.011 34.736 -13.032
32.411 34.599 -10.787
32.496 32.271 -10.857
30.288 35.723 -11.366
29.656 34.229 -11.557
31.201 33.664 -13.607
31.256 35.909 -13.607
31.597 35.947 -14.544
31.098 36.757 -13.098
31.102 33.757 -8.236
30.787 34.122 -6.87
31.987 34.858 -6.306
31.855 35.756 -5.482
31.324 32.803 -8.548
29.992 34.719 -6.853
30.615 33.304 -6.331
33.17 34.474 -6.767
34.403 35.097 -6.316
34.357 36.58 -6.653
34.815 37.415 -5.877
35.599 34.437 -6.99
33.137 33.704 -7.465
34.476 34.996 -5.324
36.027 33.794 -6.355
35.294 33.946 -7.805
36.262 35.137 -7.252
33.788 36.898 -7.809
33.678 38.283 -8.255
32.798 39.101 -7.32
33.105 40.256 -7.018
33.107 38.341 -9.676
33.075 39.742 -10.258
34.467 40.332 -10.46
34.578 41.572 -10.519
35.444 39.565 -10.573
32.643 39.704 -11.14
34.597 38.698 -8.3
32.596 40.33 -9.633
33.434 36.091 -8.359
32.184 38.009 -9.64
33.682 37.79 -10.25
31.701 38.505 -6.865
30.787 39.196 -5.96
31.465 39.419 -4.603
31.233 40.432 -3.942
29.496 38.391 -5.779
29.702 37.284 -4.924
31.555 37.537 -7.198
30.58 40.095 -6.349
29.197 38.063 -6.671
28.802 38.985 -5.383
30.507 36.774 -5.225
32.296 38.467 -4.19
33.016 38.606 -2.928
33.996 39.769 -3.056
34.06 40.631 -2.181
33.799 37.319 -2.575
34.76 37.578 -1.418
32.82 36.217 -2.192
32.358 38.834 -2.215
34.469 38.395 -0.922
31.966 36.345 -2.696
34.352 37.078 -3.365
34.755 36.792 -0.8
35.682 37.715 -1.777
32.383 37.653 -4.816
33.217 35.329 -2.422
32.641 36.262 -1.21
34.752 39.781 -4.153
35.733 40.834 -4.416
35.08 42.21 -4.465
35.663 43.204 -4.025
36.45 40.566 -5.746
37.401 41.642 -6.285
38.545 41.883 -5.314
37.941 41.19 -7.637
37.181 41.061 -8.274
38.563 41.885 -7.997
38.434 40.327 -7.528
34.586 38.983 -4.802
39.059 41.034 -5.184
39.154 42.587 -5.681
38.18 42.188 -4.434
36.413 40.83 -3.671
36.888 42.49 -6.414
35.747 40.415 -6.445
36.987 39.724 -5.637
33.87 42.252 -5.015
33.098 43.483 -5.146
32.821 44.094 -3.779
32.874 45.308 -3.621
31.782 43.186 -5.866
30.919 44.397 -6.147
31.641 45.452 -6.97
30.106 44.106 -6.651
33.649 44.141 -5.671
30.643 44.808 -5.278
33.518 41.323 -5.347
31.248 42.543 -5.303
31.992 42.739 -6.744
30.516 46.896 -6.108
32.516 45.136 -7.785
31.264 46.715 -6.775
31.712 47.477 -7.281
32.531 43.247 -2.791
32.259 43.718 -1.432
33.507 44.366 -0.814
33.414 45.402 -0.153
31.769 42.562 -0.524
31.514 43.081 0.894
30.489 41.955 -1.103
31.542 44.421 -1.48
30.997 43.934 0.845
29.912 41.636 -0.353
32.502 41.898 -0.461
30.992 42.401 1.405
32.388 43.243 1.347
32.515 42.247 -3.064
30.007 42.653 -1.63
30.731 41.189 -1.695
34.666 43.754 -1.032
35.925 44.297 -0.52
36.178 45.659 -1.157
36.595 46.605 -0.49
37.09 43.363 -0.859
37.325 42.277 0.157
38.044 42.538 1.32
36.835 40.989 -0.052
38.272 41.531 2.257
37.06 39.98 0.881
37.78 40.254 2.035
37.945 39.533 2.708
35.798 44.453 0.459
38.796 41.741 3.09
36.697 39.051 0.71
34.604 42.879 -1.583
36.315 40.788 -0.881
38.4 43.45 1.49
37.912 43.912 -0.914
36.889 42.931 -1.726
35.926 45.75 -2.459
36.136 47.003 -3.167
35.178 48.097 -2.701
35.576 49.252 -2.582
36.016 46.796 -4.68
37.173 46.017 -5.278
37.718 46.725 -6.513
37.035 46.322 -7.733
36.928 47.074 -8.821
37.456 48.292 -8.855
36.289 46.6 -9.878
36.862 45.115 -5.553
37.084 47.317 -3.002
36.611 45.404 -7.754
37.908 45.946 -4.614
36.185 47.165 -10.7
35.907 45.674 -9.863
35.582 44.885 -2.903
38.69 46.505 -6.587
37.605 47.708 -6.378
37.35 48.857 -9.682
37.956 48.647 -8.069
35.986 47.689 -5.114
35.178 46.294 -4.859
33.926 47.744 -2.429
32.964 48.746 -1.972
33.287 49.17 -0.543
33.115 50.338 -0.166
31.536 48.202 -2.068
31.107 47.905 -3.508
29.649 47.48 -3.632
29.271 47.002 -4.72
28.883 47.629 -2.655
31.223 48.727 -4.036
32.998 49.547 -2.575
31.661 47.166 -3.847
33.703 46.75 -2.562
30.929 48.883 -1.715
31.5 47.36 -1.572
33.765 48.218 0.251
34.144 48.509 1.625
35.313 49.484 1.543
35.451 50.394 2.362
34.57 47.229 2.336
33.841 47.282 -0.182
33.39 48.954 2.084
34.031 47.116 3.17
34.418 46.447 1.733
35.54 47.286 2.571
36.139 49.298 0.521
37.305 50.149 0.313
36.871 51.563 -0.091
37.305 52.548 0.506
38.2 49.533 -0.764
39.642 50.012 -0.762
39.767 51.418 -1.304
41.22 51.746 -1.619
41.825 50.715 -2.51
37.826 50.208 1.17
41.261 52.637 -2.072
41.737 51.785 -0.763
39.99 49.992 0.178
40.191 49.393 -1.327
41.43 50.796 -3.424
42.813 50.858 -2.557
41.634 49.806 -2.141
39.44 52.061 -0.623
39.239 51.493 -2.141
35.888 48.509 -0.106
37.799 49.745 -1.66
38.2 48.538 -0.637
36.008 51.654 -1.097
35.528 52.946 -1.563
34.77 53.647 -0.448
34.6 54.861 -0.475
34.629 52.768 -2.775
35.716 50.749 -1.508
36.316 53.512 -1.822
35.133 52.298 -3.5
33.828 52.225 -2.522
34.331 53.663 -3.106
34.322 52.877 0.538
33.577 53.437 1.657
34.484 54.029 2.729
34.007 54.677 3.657
32.681 52.377 2.267
34.544 51.869 0.442
32.971 54.172 1.308
32.461 51.685 1.579
33.15 51.94 3.035
31.834 52.799 2.594
35.789 53.799 2.611
36.713 54.344 3.589
37.62 53.333 4.262
38.603 53.71 4.892
36.067 53.228 1.803
37.292 55.062 3.137
36.179 54.845 4.31
37.304 52.049 4.137
38.118 51.01 4.761
39.538 50.972 4.21
39.745 50.985 2.996
37.463 49.66 4.577
36.457 51.856 3.577
38.164 51.19 5.757
36.563 49.774 4.153
38.032 49.084 3.988
37.352 49.212 5.466
40.518 50.929 5.108
41.915 50.871 4.698
42.221 49.431 4.299
42.751 48.643 5.091
42.829 51.319 5.84
44.283 51.41 5.423
45.082 52.011 6.175
44.636 50.879 4.349
40.208 50.94 6.096
42.009 51.427 3.878
42.747 50.658 6.576
42.526 52.216 6.142
41.866 49.104 3.058
42.063 47.772 2.505
42.91 47.807 1.237
42.607 48.534 0.293
40.698 47.116 2.158
39.801 47.097 3.394
40.904 45.692 1.641
38.423 46.534 3.152
42.593 47.256 3.189
40.016 45.306 1.404
41.491 45.725 0.836
40.264 47.676 1.465
40.254 46.556 4.105
39.71 48.038 3.728
38.5 45.59 2.832
41.433 49.889 2.516
37.9 46.555 4.003
41.335 45.15 2.359
37.955 47.083 2.46
43.982 47.029 1.223
44.834 46.937 0.051
44.556 45.555 -0.527
44.726 44.551 0.166
46.338 47.04 0.412
46.598 48.297 1.051
47.187 46.932 -0.838
44.551 47.613 -0.607
47.559 47.833 -1.079
47.948 46.296 -0.682
44.154 46.504 2.102
46.566 46.294 1.069
46.631 46.594 -1.603
46.29 48.273 2.008
44.115 45.509 -1.784
43.797 44.252 -2.457
44.843 43.889 -3.502
45.105 44.65 -4.429
42.396 44.322 -3.132
41.323 44.543 -2.068
42.089 43.026 -3.883
39.962 44.858 -2.632
43.836 43.536 -1.749
41.193 43.109 -4.312
42.791 42.884 -4.577
42.398 45.101 -3.742
41.262 43.718 -1.506
41.614 45.302 -1.484
39.655 44.101 -3.209
44.018 46.441 -2.241
39.312 44.99 -1.884
42.091 42.271 -3.232
40.012 45.693 -3.18
45.441 42.713 -3.339
46.454 42.224 -4.263
45.871 41.085 -5.09
45.615 40.004 -4.568
47.696 41.671 -3.522
48.166 42.653 -2.442
48.801 41.387 -4.523
48.552 44.018 -2.964
46.642 42.971 -4.899
49.581 40.989 -4.043
48.462 40.746 -5.21
47.431 40.824 -3.075
47.431 42.756 -1.771
48.958 42.249 -1.979
47.765 44.436 -3.415
45.124 42.179 -2.502
48.845 44.594 -2.202
49.072 42.243 -4.961
49.301 43.924 -3.618
45.665 41.334 -6.378
45.121 40.322 -7.276
46.246 39.727 -8.108
46.75 40.361 -9.035
44.071 40.936 -8.205
42.813 41.515 -7.554
42.011 42.275 -8.592
41.979 40.403 -6.938
42.516 39.927 -6.241
41.16 40.792 -6.516
41.708 39.753 -7.649
45.92 42.293 -6.684
41.746 41.656 -9.334
41.187 42.656 -8.17
42.564 43.021 -8.966
44.711 39.593 -6.727
43.083 42.133 -6.822
43.775 40.225 -8.843
44.51 41.678 -8.713
46.647 38.511 -7.763
47.711 37.828 -8.482
47.284 36.397 -8.793
48.083 35.468 -8.535
48.99 37.828 -7.642
48.746 37.325 -6.338
46.149 36.228 -9.296
46.145 38.099 -6.952
47.857 38.301 -9.353
49.326 38.763 -7.57
49.668 37.253 -8.089
47.764 37.195 -6.21
