17.043 53.542 26.771
17.618 52.685 25.691
16.636 51.637 25.159
16.245 50.712 25.872
18.891 51.956 26.178
19.29 50.87 25.191
20.024 52.948 26.33
19.651 53.857 26.52
16.431 54.212 26.358
16.539 52.963 27.407
18.669 51.505 27.036
19.552 51.288 24.321
20.064 50.353 25.557
18.518 50.252 25.043
17.788 54.005 27.245
20.616 52.668 27.086
20.559 52.979 25.485
17.872 53.297 24.926
16.245 51.793 23.901
15.336 50.856 23.248
16.162 50.087 22.229
16.57 50.648 21.209
14.211 51.594 22.491
13.413 52.471 23.457
13.304 50.586 21.799
12.381 53.354 22.773
15.06 50.205 23.941
12.603 51.079 21.288
13.853 50.031 21.177
14.635 52.185 21.815
12.947 51.88 24.112
14.053 53.056 23.952
11.73 52.778 22.284
16.638 52.632 23.424
11.903 53.894 23.463
12.878 50.006 22.491
12.844 53.961 22.13
16.408 48.806 22.496
17.211 47.997 21.582
16.718 46.567 21.361
17.512 45.682 21.038
18.668 47.967 22.054
18.874 47.102 23.289
17.183 48.462 20.671
15.997 48.45 23.371
18.948 48.899 22.27
19.231 47.604 21.316
17.942 46.863 24.053
20.109 46.646 23.496
20.304 46.071 24.285
20.841 46.885 22.856
15.417 46.343 21.54
14.821 45.023 21.325
14.101 45.02 19.969
13.764 46.083 19.44
13.804 44.675 22.437
12.808 45.701 22.516
14.503 44.545 23.785
15.55 44.344 21.293
15.451 44.864 23.708
14.024 45.099 24.47
14.87 47.173 21.841
13.343 43.799 22.194
14.501 43.586 24.077
12.645 46.101 21.608
13.856 43.838 19.406
13.187 43.743 18.1
11.848 44.468 17.999
11.638 45.252 17.075
12.991 42.276 17.691
14.242 41.62 17.179
14.861 42.081 16.017
14.816 40.558 17.866
16.037 41.495 15.551
15.991 39.965 17.407
16.604 40.435 16.248
17.446 40.015 15.919
13.811 44.184 17.423
16.466 41.844 14.712
16.394 39.191 17.92
14.167 43.017 19.948
14.384 40.214 18.699
14.462 42.839 15.511
12.315 42.253 16.971
12.688 41.78 18.489
10.942 44.213 18.938
9.638 44.854 18.887
9.645 46.297 19.375
8.802 47.102 18.958
8.613 44.03 19.669
8.259 42.727 18.966
7.72 42.784 17.844
8.528 41.646 19.527
11.235 43.552 19.669
9.351 44.874 17.911
7.79 44.573 19.766
9.001 43.816 20.556
10.587 46.628 20.256
10.667 47.994 20.751
11.095 48.928 19.635
10.513 49.994 19.434
11.218 45.87 20.538
9.769 48.278 21.1
11.333 48.041 21.501
12.129 48.525 18.908
12.638 49.31 17.795
11.667 49.261 16.599
11.448 50.266 15.926
14.022 48.788 17.363
14.561 49.606 16.209
14.963 48.823 18.544
12.709 50.27 18.086
14.206 49.247 15.345
15.507 49.664 18.515
13.902 47.856 17.034
14.277 50.561 16.31
15.561 49.559 16.199
12.537 47.613 19.2
14.435 48.798 19.395
15.574 48.03 18.51
11.086 48.09 16.352
10.146 47.92 15.25
8.935 48.841 15.405
8.57 49.549 14.463
9.694 46.467 15.163
11.355 47.324 16.999
10.612 48.149 14.386
8.706 46.417 15.302
9.923 46.1 14.262
10.157 45.931 15.868
8.31 48.824 16.585
7.151 49.674 16.842
7.555 51.141 16.756
6.802 51.982 16.255
6.556 49.427 18.244
5.969 48.03 18.412
5.388 47.495 17.446
6.072 47.476 19.528
8.711 48.172 17.281
6.49 49.507 16.107
5.837 50.096 18.39
7.285 49.549 18.908
8.743 51.451 17.264
9.224 52.822 17.249
9.426 53.304 15.813
9.07 54.434 15.488
10.526 52.936 18.052
10.927 54.361 18.396
11.511 55.2 17.44
10.745 54.862 19.684
11.914 56.504 17.768
11.142 56.164 20.019
11.728 56.971 19.056
12.166 58.227 19.395
8.53 53.41 17.678
12.33 57.084 17.07
11.002 56.503 20.946
9.274 50.656 17.657
10.325 54.289 20.382
11.646 54.87 16.508
11.262 52.53 17.514
10.412 52.432 18.905
13.123 58.326 19.126
9.987 52.449 14.958
10.202 52.808 13.554
8.87 53.094 12.843
8.761 54.04 12.062
10.938 51.685 12.812
12.447 51.568 13.02
12.944 50.231 12.485
13.142 52.735 12.321
12.815 53.596 12.708
14.129 52.662 12.455
12.934 52.708 11.344
10.25 51.534 15.361
12.741 50.166 11.508
13.932 50.162 12.625
12.486 49.486 12.971
10.762 53.642 13.518
12.647 51.629 13.995
10.781 51.816 11.831
10.529 50.815 13.098
7.864 52.275 13.124
6.548 52.438 12.51
5.809 53.682 12.987
5.114 54.334 12.212
5.663 51.235 12.815
6.112 49.917 12.243
5.112 48.829 12.564
6.186 49.998 11.256
6.683 52.525 11.507
6.988 49.67 12.64
8.088 51.523 13.804
4.73 51.429 12.467
5.595 51.136 13.821
4.966 48.382 10.597
4.756 48.613 13.732
4.645 48.139 11.532
3.976 47.379 11.67
5.95 53.985 14.274
5.281 55.121 14.893
5.96 56.472 14.682
5.287 57.492 14.553
5.154 54.903 16.404
4.495 53.656 16.649
4.364 56.031 17.041
4.333 55.182 14.509
3.441 55.713 17.274
4.824 56.341 17.878
6.581 53.338 14.801
6.088 54.854 16.812
4.292 56.802 16.402
5.135 52.891 16.523
7.285 56.49 14.636
7.987 57.756 14.485
8.851 57.881 13.237
9.543 58.887 13.044
8.822 57.989 15.74
7.995 57.839 16.99
7.015 58.775 17.316
8.163 56.741 17.833
6.225 58.62 18.458
7.381 56.576 18.965
6.417 57.518 19.277
5.662 57.364 20.419
7.286 58.505 14.456
5.527 59.3 18.679
7.513 55.778 19.556
7.748 55.577 14.713
8.861 56.06 17.614
6.872 59.57 16.728
9.181 58.909 15.711
9.548 57.319 15.762
4.999 56.632 20.276
8.801 56.86 12.387
9.567 56.844 11.149
11.036 57.19 11.331
11.622 57.914 10.529
8.923 57.782 10.125
7.68 57.222 9.501
7.167 55.986 9.835
6.827 57.749 8.589
6.05 55.778 9.159
5.821 56.833 8.397
7.577 55.349 10.487
6.912 58.635 8.142
8.173 56.082 12.682
5.479 54.965 9.213
9.509 55.907 10.751
9.585 57.971 9.393
8.687 58.648 10.577
11.627 56.651 12.392
13.037 56.869 12.69
13.486 55.922 13.804
12.659 55.324 14.481
13.267 58.327 13.094
12.426 58.806 14.266
12.758 60.247 14.611
12.063 60.687 15.887
10.57 60.649 15.775
13.58 56.677 11.869
12.347 60.083 16.641
12.348 61.627 16.109
11.461 58.745 14.021
12.612 58.231 15.059
10.243 61.537 15.456
10.309 59.939 15.124
10.18 60.447 16.671
12.457 60.835 13.867
13.741 60.329 14.74
11.002 56.065 12.986
13.061 58.905 12.302
14.233 58.434 13.336
14.793 55.762 13.973
15.317 54.889 15.026
15.32 55.638 16.344
15.312 56.87 16.355
16.762 54.475 14.725
17.061 53.478 13.609
18.568 53.393 13.376
16.497 52.12 13.992
15.507 52.191 14.122
16.689 51.459 13.265
16.921 51.808 14.843
15.392 56.29 13.318
19.017 53.092 14.216
18.754 52.738 12.644
18.915 54.293 13.116
14.714 54.095 15.108
16.615 53.781 12.771
17.15 54.091 15.579
17.28 55.322 14.514
15.323 54.906 17.474
15.342 55.52 18.808
16.64 56.326 18.919
17.536 56.152 18.098
15.333 54.31 19.748
14.577 53.29 18.964
15.131 53.449 17.573
14.752 52.374 19.315
14.552 56.098 18.948
14.484 53.132 16.883
16 52.973 17.469
13.6 53.483 18.983
14.866 54.529 20.599
16.262 54.003 19.936
16.756 57.183 19.929
17.961 58.006 20.07
19.248 57.271 20.43
20.339 57.819 20.268
17.739 59.12 21.094
16.699 60.124 20.649
16.475 60.261 19.424
16.113 60.792 21.53
15.959 57.218 20.578
18.12 58.454 19.159
18.604 59.59 21.228
17.438 58.7 21.943
19.141 56.045 20.921
20.337 55.3 21.295
21.078 54.68 20.102
21.929 53.812 20.281
19.971 54.213 22.311
18.782 53.379 21.868
20.98 55.959 21.725
18.183 55.682 21.011
19.746 54.654 23.175
20.756 53.612 22.424
17.634 53.823 21.933
19.054 52.168 21.401
18.314 51.571 21.088
20.002 51.847 21.361
20.76 55.131 18.891
21.404 54.609 17.677
22.25 55.625 16.92
21.835 56.76 16.722
20.354 54.059 16.709
19.805 52.716 17.108
20.507 51.544 16.822
18.6 52.616 17.801
20.025 50.299 17.216
18.108 51.377 18.207
18.823 50.225 17.91
18.334 49.005 18.301
22.011 53.837 17.955
20.537 49.47 17.004
17.247 51.319 18.708
20.032 55.869 18.875
18.083 53.441 18.011
21.374 51.598 16.323
20.776 53.972 15.81
19.599 54.709 16.668
18.968 48.288 18.014
23.435 55.197 16.489
24.332 56.052 15.72
24.933 55.227 14.58
25.135 54.019 14.719
25.467 56.66 16.617
26.516 55.605 16.999
24.849 57.295 17.853
25.998 54.432 17.78
23.763 56.749 15.294
25.569 57.735 18.386
24.175 57.973 17.566
25.917 57.37 16.083
26.946 55.274 16.151
27.232 56.066 17.538
25.3 53.953 17.246
23.661 54.214 16.745
26.75 53.803 17.981
24.408 56.584 18.397
25.595 54.75 18.639
25.199 55.872 13.45
25.761 55.185 12.287
27.214 54.79 12.517
27.82 55.192 13.507
25.69 56.066 11.033
26.575 57.184 11.181
24.269 56.568 10.817
25.225 54.345 12.124
23.824 56.03 10.097
23.744 56.478 11.667
24.978 56.886 13.462
26 55.521 10.227
24.287 57.532 10.542
26.157 57.885 11.768
27.761 53.991 11.605
29.147 53.536 11.708
30.124 54.707 11.633
31.126 54.732 12.348
29.472 52.535 10.595
28.74 51.2 10.701
28.797 50.443 9.384
27.943 49.182 9.404
27.773 48.628 8.022
29.271 53.069 12.593
28.387 48.496 9.977
27.044 49.402 9.779
29.173 50.649 11.411
27.786 51.371 10.937
27.616 49.381 7.386
28.601 48.133 7.765
26.991 48.008 8.013
29.743 50.181 9.202
28.464 51.038 8.655
27.129 53.722 10.825
30.456 52.354 10.616
29.232 52.954 9.719
29.834 55.678 10.774
30.719 56.831 10.639
30.662 57.726 11.882
31.679 58.279 12.3
30.368 57.639 9.384
29.12 58.293 9.527
28.967 55.551 10.235
31.663 56.493 10.549
30.322 57.017 8.607
31.078 58.321 9.235
28.556 57.795 10.185
29.477 57.863 12.474
29.318 58.682 13.677
30.066 58.038 14.835
30.742 58.717 15.609
27.84 58.828 14.039
27.001 59.455 12.933
25.527 59.535 13.282
24.958 58.509 13.712
24.936 60.621 13.114
27.323 60.372 12.786
29.681 59.6 13.509
27.086 58.898 12.127
28.699 57.354 12.022
27.779 59.412 14.825
27.482 57.929 14.21
29.944 56.72 14.952
30.624 55.999 16.011
32.131 56.183 15.848
32.852 56.398 16.822
30.264 54.526 15.956
29.34 56.271 14.242
30.352 56.379 16.895
29.364 54.384 16.37
30.241 54.22 15.004
30.947 53.994 16.458
32.597 56.112 14.607
34.017 56.266 14.318
34.521 57.651 14.7
35.596 57.792 15.285
34.289 56.012 12.84
35.398 55.009 12.622
35.623 54.679 11.165
36.25 55.382 12.999
34.523 55.591 14.873
35.169 54.162 13.11
31.879 55.941 13.878
34.553 56.872 12.409
33.459 55.66 12.416
34.879 52.823 11.466
36.111 55.508 10.4
35.265 53.46 10.772
35.375 53.171 9.801
33.744 58.671 14.363
34.114 60.039 14.69
34.252 60.177 16.208
34.891 61.109 16.704
33.056 61.011 14.161
32.875 58.415 13.861
34.998 60.249 14.271
32.183 60.824 14.608
33.341 61.947 14.358
32.96 60.89 13.175
33.659 59.242 16.946
33.725 59.277 18.401
34.856 58.42 18.966
35.013 58.309 20.184
32.381 58.843 18.999
31.194 59.764 18.683
29.912 59.191 19.272
31.466 61.153 19.24
32.295 61.525 18.823
30.693 61.754 19.035
31.589 61.099 20.231
33.162 58.51 16.41
30.007 59.11 20.264
29.146 59.799 19.06
29.738 58.288 18.879
33.879 60.236 18.694
31.1 59.841 17.693
32.48 58.815 19.984
32.162 57.945 18.639
35.644 57.814 18.083
36.753 56.994 18.54
36.551 55.495 18.44
37.436 54.73 18.802
35.407 57.972 17.095
37.598 57.252 18.012
36.967 57.237 19.517
35.398 55.063 17.94
35.108 53.634 17.815
36.041 52.892 16.862
36.309 53.346 15.75
33.651 53.427 17.365
33.254 51.977 17.179
33.376 50.969 18.094
32.649 51.39 16.015
32.885 49.794 17.574
32.433 50.022 16.301
32.268 51.888 14.758
31.851 49.143 15.375
31.69 51.015 13.836
31.488 49.658 14.151
31.071 49.064 13.465
35.221 53.218 18.737
32.861 48.914 18.048
32.404 52.845 14.523
31.42 51.361 12.946
31.713 48.18 15.612
33.765 51.068 19.008
34.737 55.807 17.653
33.516 53.88 16.491
33.044 53.808 18.053
36.539 51.748 17.32
37.416 50.893 16.525
36.834 49.491 16.646
37.107 48.786 17.616
38.863 50.864 17.075
39.715 49.905 16.245
39.464 52.259 17.052
37.352 51.173 15.581
40.472 50.409 15.83
39.982 52.383 16.205
38.827 50.498 17.995
40.076 49.186 16.837
39.151 49.497 15.528
36.25 51.513 18.297
38.73 52.937 17.098
40.074 52.37 17.837
36.027 49.099 15.665
35.379 47.79 15.663
36.238 46.669 16.257
35.782 45.926 17.131
34.955 47.427 14.24
35.898 49.8 14.904
34.519 47.853 16.206
34 47.685 14.103
35.531 47.917 13.588
35.059 46.443 14.105
37.48 46.557 15.79
38.395 45.519 16.265
38.73 45.64 17.758
39.294 44.722 18.35
39.683 45.544 15.435
40.252 46.841 15.416
37.739 47.26 15.07
37.948 44.619 16.124
39.467 45.27 14.503
40.335 44.908 15.837
39.826 47.403 16.124
38.392 46.776 18.357
38.631 46.982 19.781
37.369 46.643 20.579
37.447 46.285 21.752
39.012 48.437 20.071
40.408 48.861 19.646
40.64 50.32 20.033
42.048 50.785 19.713
42.371 50.672 18.261
39.371 46.375 20.081
42.148 51.746 19.996
42.704 50.23 20.238
41.078 48.296 20.111
40.494 48.773 18.662
41.963 51.442 17.772
43.363 50.685 18.142
42.001 49.814 17.907
40.486 50.418 21.014
39.992 50.889 19.53
37.955 47.485 17.74
38.926 48.588 21.064
38.347 49.031 19.603
36.207 46.765 19.943
34.961 46.482 20.635
34.744 47.494 21.74
34.235 47.166 22.816
36.27 47.065 18.96
34.197 46.526 19.985
34.996 45.559 21.028
35.112 48.739 21.452
35.01 49.835 22.409
33.817 50.776 22.242
33.791 51.837 22.863
36.3 50.659 22.358
36.517 51.314 21.003
34.921 49.41 23.34
35.481 48.864 20.481
37.067 50.054 22.544
36.246 51.372 23.049
35.913 50.916 20.003
37.392 52.313 20.96
37.573 52.786 20.1
37.872 52.592 21.794
32.833 50.402 21.424
31.664 51.264 21.205
31.047 51.797 22.5
30.777 52.996 22.621
30.575 50.527 20.409
29.295 51.338 20.13
29.649 52.541 19.267
28.234 50.476 19.431
28.002 49.702 20.017
27.42 51.028 19.265
28.6 50.145 18.564
32.959 49.484 20.972
30.045 52.228 18.403
28.823 53.074 19.081
30.313 53.114 19.748
31.956 52.057 20.642
28.917 51.646 20.994
30.309 49.725 20.926
30.959 50.272 19.531
30.819 50.901 23.459
30.215 51.277 24.735
31.122 52.215 25.522
30.65 53.028 26.315
29.906 50.036 25.555
31.103 49.93 23.224
29.343 51.75 24.553
30.588 49.33 25.365
29.928 50.263 26.529
28.998 49.693 25.315
32.425 52.103 25.3
33.364 52.968 25.995
33.343 54.364 25.371
33.339 55.36 26.086
34.777 52.37 25.954
34.86 51.018 26.657
34.418 50.914 27.821
35.368 50.054 26.05
32.699 51.379 24.62
33.041 53.067 26.939
35.391 53.001 26.407
35.032 52.249 25.004
33.3 54.434 24.042
33.277 55.718 23.349
31.897 56.375 23.277
31.802 57.596 23.163
33.824 55.601 21.904
35.303 55.247 21.936
33.04 54.556 21.124
33.896 56.356 23.849
35.408 54.255 22.008
33.551 54.306 20.302
33.745 56.495 21.482
35.742 55.567 21.096
35.735 55.685 22.724
33.285 53.519 23.556
32.907 53.747 21.697
32.151 54.935 20.866
30.833 55.579 23.323
29.481 56.133 23.274
28.525 55.272 24.09
27.764 54.468 23.542
28.995 56.24 21.825
31.038 54.57 23.394
29.496 57.058 23.667
28.719 55.337 21.503
28.217 56.864 21.784
29.736 56.588 21.254
28.55 55.44 25.425
27.7 54.693 26.356
26.238 54.616 25.923
25.653 55.617 25.507
27.874 55.465 27.662
29.287 55.929 27.573
29.362 56.433 26.156
29.461 56.661 28.22
28.075 53.758 26.508
30.299 56.436 25.818
28.964 57.341 26.069
29.916 55.176 27.716
27.74 54.868 28.447
27.245 56.235 27.704
25.668 53.416 26.019
24.273 53.211 25.672
23.942 53.271 24.193
22.785 53.104 23.804
26.296 52.662 26.356
23.967 52.301 26.045
23.7 53.907 26.17
24.945 53.506 23.359
24.709 53.577 21.929
24.902 52.223 21.253
25.608 51.355 21.765
25.655 54.599 21.292
25.521 56.001 21.848
24.137 56.57 21.606
24.068 58.019 22.056
22.727 58.621 21.863
23.758 53.883 21.766
24.315 58.067 23.033
24.749 58.553 21.536
25.695 55.981 22.835
26.197 56.595 21.408
22.758 59.269 21.101
22.063 57.901 21.66
22.453 59.101 22.697
23.475 56.045 22.126
23.936 56.53 20.635
25.869 53.629 23.8
25.464 54.627 20.311
26.593 54.287 21.441
24.252 52.056 20.103
24.358 50.843 19.287
24.459 51.303 17.828
23.911 52.345 17.461
23.112 49.962 19.428
22.886 49.567 20.763
23.653 52.871 19.827
25.202 50.384 19.52
23.234 49.146 18.861
22.319 50.477 19.1
23.58 49.975 21.357
25.161 50.537 17.003
25.285 50.881 15.594
23.919 50.65 14.916
23.232 49.673 15.208
26.352 50.002 14.917
27.707 50.221 15.602
26.439 50.326 13.423
28.225 51.653 15.485
25.453 51.86 15.551
27.118 49.727 13.006
25.545 50.173 13.011
26.095 49.054 15.043
27.616 49.992 16.566
28.373 49.609 15.183
27.568 52.271 15.909
25.596 49.705 17.434
29.104 51.719 15.951
26.709 51.28 13.319
28.333 51.881 14.521
23.529 51.553 14.026
22.259 51.42 13.336
21.953 52.645 12.498
22.455 53.739 12.772
24.19 52.334 13.874
22.283 50.605 12.74
21.521 51.285 14.012
21.142 52.47 11.463
20.791 53.596 10.62
21.433 53.613 9.247
20.995 54.354 8.377
20.803 51.51 11.322
19.769 53.626 10.509
21.03 54.468 11.11
22.467 52.803 9.045
23.154 52.742 7.757
22.358 52.006 6.689
21.572 51.116 6.996
24.508 52.051 7.907
25.534 52.923 8.607
25.933 53.951 8.02
25.933 52.583 9.736
22.739 52.228 9.866
23.269 53.698 7.436
24.844 51.829 7
24.375 51.224 8.441
22.59 52.385 5.433
21.928 51.771 4.294
22.271 50.281 4.214
23.429 49.88 4.388
22.354 52.456 2.958
21.548 53.737 2.736
22.137 51.521 1.778
21.963 54.884 3.614
20.943 51.825 4.472
22.444 51.975 0.944
22.664 50.686 1.925
23.312 52.699 3.041
21.644 54.005 1.776
20.583 53.529 2.907
22.923 55.109 3.442
23.287 53.159 5.341
21.395 55.683 3.414
21.165 51.304 1.711
21.85 54.63 4.575
21.253 49.466 3.969
21.436 48.029 3.828
21.315 47.724 2.343
20.268 47.952 1.746
20.359 47.27 4.591
20.524 45.78 4.532
21.6 45.164 5.164
19.616 44.994 3.835
21.772 43.778 5.105
19.777 43.609 3.768
20.862 42.999 4.408
20.977 42.011 4.362
22.37 47.826 4.088
22.558 43.359 5.57
19.109 43.051 3.256
20.328 49.936 3.888
18.838 45.421 3.376
22.26 45.712 5.669
19.484 47.497 4.191
20.405 47.545 5.539
22.376 47.206 1.744
22.356 46.915 0.314
21.637 45.639 -0.145
21.509 45.393 -1.349
23.785 46.934 -0.222
24.323 48.234 -0.093
23.19 47.032 2.354
21.897 47.71 -0.16
23.771 46.681 -1.18
24.334 46.3 0.305
23.58 48.901 -0.042
21.175 44.829 0.802
20.447 43.621 0.455
21.206 42.903 -0.666
20.668 42.659 -1.742
19.045 44.043 0.008
18.09 42.885 -0.11
20.467 43.018 1.248
21.374 45.127 1.771
19.124 44.49 -0.882
18.686 44.691 0.678
18.292 41.829 0.498
17.019 43.084 -0.88
16.342 42.355 -0.996
16.893 43.961 -1.342
22.457 42.556 -0.382
23.362 41.925 -1.35
23.043 40.513 -1.834
23.48 40.117 -2.915
24.793 41.962 -0.8
25.354 43.375 -0.633
26.534 43.41 0.327
26.795 44.77 0.796
27.328 45.73 0.045
27.667 45.481 -1.211
27.501 46.946 0.541
24.64 43.971 -0.272
23.418 42.544 -2.182
26.556 44.994 1.747
25.662 43.714 -1.519
27.916 47.663 -0.011
27.21 47.149 1.481
22.749 42.772 0.603
27.333 43.068 -0.154
26.319 42.83 1.103
28.088 46.213 -1.766
27.51 44.583 -1.611
25.383 41.472 -1.431
24.796 41.524 0.092
22.298 39.758 -1.036
21.928 38.398 -1.394
20.527 38.411 -2
20.005 37.37 -2.397
21.945 37.503 -0.149
23.329 37.28 0.474
24.216 36.374 -0.37
23.707 35.83 -1.368
25.411 36.195 -0.036
23.774 38.151 0.544
22.575 38.031 -2.06
23.205 36.847 1.345
22.008 40.217 -0.149
21.594 36.618 -0.408
21.38 37.931 0.538
19.922 39.594 -2.055
18.589 39.726 -2.615
17.52 38.978 -1.839
16.492 38.579 -2.4
20.471 40.385 -1.675
18.339 40.714 -2.658
18.595 39.392 -3.579
17.746 38.797 -0.541
16.791 38.076 0.294
15.578 38.912 0.667
14.488 38.374 0.824
17.488 37.54 1.553
18.497 36.421 1.257
19.51 36.239 2.387
20.644 35.294 1.987
21.825 35.398 2.9
16.475 37.253 -0.212
20.299 34.351 2.003
20.934 35.515 1.05
17.997 35.563 1.13
18.989 36.645 0.414
22.102 36.354 2.969
21.573 35.053 3.802
22.575 34.854 2.528
19.044 35.855 3.177
19.902 37.125 2.611
18.63 39.199 -0.188
16.794 37.177 2.164
17.976 38.289 1.984
15.751 40.224 0.8
14.622 41.077 1.141
13.953 41.593 -0.138
14.596 41.755 -1.178
15.069 42.254 2.022
15.825 41.915 3.313
16.238 43.196 4.021
14.955 41.069 4.214
14.708 40.218 3.747
15.451 40.849 5.056
14.119 41.569 4.447
16.709 40.563 0.647
15.424 43.732 4.247
16.731 42.97 4.862
16.833 43.733 3.422
13.949 40.537 1.65
16.636 41.385 3.082
14.252 42.766 2.282
15.668 42.835 1.471
12.642 41.838 -0.074
11.842 42.333 -1.201
12.327 43.68 -1.76
12.233 44.719 -1.095
10.434 42.412 -0.609
10.696 42.69 0.846
11.827 41.744 1.149
10.972 43.633 0.975
11.804 41.638 -1.943
11.499 40.813 1.282
12.349 42.041 1.942
9.895 42.477 1.389
9.951 41.55 -0.723
9.915 43.154 -1.023
12.846 43.646 -2.983
13.336 44.851 -3.621
12.293 45.477 -4.525
11.528 44.778 -5.188
12.867 42.708 -3.423
13.609 45.521 -2.913
14.162 44.633 -4.165
12.261 46.803 -4.551
11.309 47.533 -5.38
11.912 48.879 -5.765
12.598 49.52 -4.966
9.995 47.732 -4.608
9.009 48.674 -5.271
7.75 48.88 -4.427
6.651 47.875 -4.761
7.018 46.462 -4.449
11.132 47.009 -6.213
5.82 48.12 -4.242
6.434 47.948 -5.745
9.447 49.565 -5.412
8.738 48.298 -6.16
7.905 46.254 -4.859
7.07 46.346 -3.458
6.322 45.851 -4.823
7.4 49.799 -4.593
7.991 48.778 -3.464
12.961 47.269 -3.94
10.223 48.095 -3.703
9.56 46.837 -4.506
11.669 49.307 -6.996
12.2 50.58 -7.461
11.778 51.678 -6.492
10.586 51.84 -6.211
11.661 50.889 -8.855
11.81 49.769 -9.712
11.089 48.678 -7.576
13.198 50.527 -7.45
12.169 51.656 -9.234
10.695 51.116 -8.785
11.784 48.93 -9.171
12.756 52.42 -5.975
12.465 53.497 -5.045
12.533 53.127 -3.573
12.463 53.998 -2.705
13.709 52.166 -6.287
13.112 54.276 -5.222
11.531 53.873 -5.25
12.671 51.839 -3.278
12.733 51.397 -1.892
14.166 51.202 -1.429
14.928 50.481 -2.057
11.966 50.081 -1.721
12.209 49.357 -0.392
11.55 47.964 -0.392
10.093 48.063 -0.432
9.285 47.133 -0.935
9.776 46.019 -1.454
7.977 47.322 -0.916
11.811 49.881 0.349
12.297 52.097 -1.308
9.668 48.896 -0.051
13.183 49.233 -0.254
7.362 46.637 -1.308
7.594 48.154 -0.506
12.728 51.204 -4.089
11.831 47.5 0.439
11.874 47.478 -1.194
9.151 45.334 -1.847
10.76 45.853 -1.457
12.235 49.463 -2.457
10.989 50.277 -1.787
14.542 51.857 -0.34
15.885 51.662 0.179
15.772 50.981 1.536
14.804 51.173 2.271
16.697 52.99 0.278
17.161 53.184 1.616
15.888 54.146 -0.132
16.384 51.057 -0.436
15.392 53.959 -0.995
15.2 54.38 0.573
13.841 52.476 0.077
17.507 52.916 -0.339
16.466 54.963 -0.281
17.591 52.343 1.964
16.747 50.143 1.847
16.736 49.428 3.101
17.829 49.953 4.006
18.86 50.419 3.524
16.984 47.937 2.877
15.868 47.185 2.249
15.724 46.888 0.93
14.745 46.607 2.922
14.578 46.154 0.735
13.955 45.97 1.94
14.328 46.566 4.258
12.766 45.296 2.25
13.142 45.896 4.569
12.377 45.271 3.564
11.535 44.802 3.828
15.856 49.605 3.553
14.252 45.81 -0.145
14.858 47 4.978
12.839 45.864 5.512
12.233 44.855 1.524
16.354 47.16 0.204
17.492 50.051 1.133
17.174 47.508 3.764
17.787 47.832 2.285
17.589 49.865 5.313
18.561 50.278 6.319
18.579 49.204 7.4
17.63 48.423 7.518
18.179 51.635 6.923
18.328 52.782 5.95
17.884 54.121 6.519
17.982 55.135 5.474
19.115 55.725 5.103
20.265 55.426 5.705
19.103 56.591 4.095
17.777 52.6 5.128
19.46 50.327 5.901
17.134 55.407 5.001
19.292 52.868 5.676
19.945 57.053 3.821
18.249 56.78 3.608
16.65 49.477 5.553
18.485 54.354 7.263
16.948 54.037 6.811
21.107 55.895 5.424
20.289 54.741 6.427
18.772 51.804 7.7
17.23 51.588 7.21
19.651 49.159 8.184
19.763 48.167 9.245
20.176 48.791 10.574
20.647 49.924 10.617
20.773 47.082 8.853
22.206 47.566 8.67
23.183 46.417 8.528
23.193 45.549 9.423
23.938 46.372 7.531
22.247 48.097 7.847
18.877 47.692 9.36
22.462 48.079 9.465
20.375 49.868 7.98
20.477 46.694 7.994
20.777 46.404 9.572
19.985 48.04 11.655
20.342 48.497 12.992
20.607 47.293 13.9
19.953 46.252 13.759
19.218 49.368 13.575
19.562 47.106 11.464
21.18 49.044 12.938
18.337 49.008 13.277
19.272 49.347 14.571
19.328 50.304 13.25
21.57 47.44 14.811
21.93 46.383 15.752
20.86 46.218 16.817
20.301 47.192 17.322
23.265 46.694 16.437
24.456 46.44 15.54
24.283 46.482 14.306
25.571 46.215 16.066
22.041 48.371 14.792
21.967 45.522 15.231
23.338 46.115 17.241
23.257 47.653 16.699
20.593 44.969 17.163
19.597 44.639 18.166
20.245 43.826 19.285
21.117 42.99 19.03
18.441 43.828 17.523
17.671 44.731 16.559
17.502 43.285 18.585
17.023 45.916 17.241
19.307 45.504 18.576
16.779 42.758 18.142
18.018 42.698 19.207
18.844 43.09 17.004
18.302 45.062 15.863
16.961 44.186 16.12
17.728 46.472 17.679
21.156 44.249 16.657
16.538 46.465 16.562
17.105 44.05 19.09
16.378 45.59 17.93
19.813 44.081 20.519
20.331 43.385 21.702
21.799 43.686 22.02
22.446 42.906 22.724
20.179 41.858 21.569
18.738 41.415 21.426
19.786 43.708 22.498
19.075 44.818 20.574
20.566 41.437 22.386
20.687 41.566 20.762
17.826 42.012 21.995
18.529 40.34 20.679
17.596 39.997 20.539
19.3 39.866 20.252
22.329 44.792 21.504
23.718 45.138 21.785
23.781 46.034 23.009
22.968 46.943 23.166
24.379 45.876 20.609
25.789 46.35 20.926
26.88 45.495 20.807
26.02 47.639 21.407
28.172 45.91 21.163
27.306 48.062 21.767
28.374 47.192 21.642
29.642 47.605 22
24.219 44.294 21.986
28.94 45.276 21.067
27.445 48.989 22.112
21.701 45.354 20.917
25.257 48.275 21.497
26.75 44.565 20.463
23.828 46.67 20.391
24.426 45.255 19.839
30.29 46.872 21.804
24.757 45.769 23.871
24.957 46.554 25.078
26.391 47.075 25.077
26.615 48.287 25.077
24.706 45.709 26.346
25.957 45.402 26.971
23.998 44.41 25.991
24.339 47.336 25.061
23.113 44.365 26.462
23.846 44.364 25.001
25.358 44.959 23.608
24.148 46.258 26.999
24.559 43.628 26.274
26.008 44.422 27.19
27.362 46.166 25.046
28.772 46.569 25.025
29.687 45.465 24.507
29.289 44.303 24.411
29.221 46.971 26.427
29.066 45.888 27.32
27.048 45.183 25.038
28.858 47.362 24.402
28.662 47.731 26.737
30.178 47.233 26.395
28.102 45.627 27.366
30.919 45.838 24.179
31.874 44.867 23.683
31.792 44.695 22.178
31.519 45.648 21.452
31.124 46.842 24.305
32.813 45.158 23.934
31.709 43.972 24.13
32.032 43.48 21.703
31.971 43.217 20.271
30.525 43.052 19.835
29.671 42.634 20.622
32.788 41.973 19.937
34.254 42.149 20.186
35.004 43.004 19.387
34.875 41.521 21.261
36.351 43.238 19.653
36.228 41.749 21.541
36.965 42.609 20.737
37.928 42.781 20.928
32.324 44.034 19.807
36.875 43.858 19.062
36.658 41.283 22.327
32.257 42.764 22.411
34.353 40.9 21.843
34.576 43.461 18.611
32.66 41.775 18.979
32.465 41.236 20.508
30.251 43.399 18.583
28.898 43.304 18.046
28.408 41.874 17.893
29.193 40.95 17.667
28.829 44.038 16.709
29.014 45.543 16.87
29.214 46.244 15.534
28.019 46.192 14.7
27.999 45.754 13.446
29.117 45.319 12.866
26.857 45.754 12.77
29.818 45.719 17.436
28.266 43.797 18.673
27.15 46.509 15.101
28.204 45.931 17.307
26.835 45.444 11.82
26.013 46.064 13.212
31.063 43.735 18.033
29.968 45.794 15.061
29.448 47.196 15.717
29.088 45.008 11.91
29.972 45.3 13.374
27.94 43.88 16.309
29.553 43.701 16.128
27.1 41.704 18.019
26.469 40.395 17.905
25.966 40.084 16.493
26.319 40.756 15.528
25.297 40.288 18.892
24.244 41.369 18.677
27.177 39.701 18.122
26.564 42.58 18.205
25.656 40.376 19.816
24.866 39.399 18.772
24.018 41.819 17.551
23.579 41.774 19.759
22.876 42.474 19.679
23.79 41.372 20.651
25.125 39.061 16.386
24.584 38.649 15.096
23.124 39.034 14.883
22.464 38.461 14.007
24.703 37.135 14.949
23.841 36.492 15.872
24.892 38.591 17.282
25.133 39.103 14.368
25.638 36.866 15.138
24.441 36.879 14.028
23.026 36.166 15.395
22.613 39.979 15.675
21.215 40.393 15.547
21.034 41.754 14.892
21.687 42.736 15.271
20.526 40.408 16.915
20.608 39.068 17.626
20.513 38.024 16.941
20.757 39.068 18.872
23.27 40.378 16.363
20.758 39.71 14.947
19.571 40.638 16.775
20.973 41.095 17.476
20.117 41.814 13.927
19.851 43.055 13.209
18.375 43.19 12.836
17.699 42.202 12.561
20.67 43.111 11.903
22.142 42.727 12.008
22.99 43.848 12.57
24.41 43.527 12.456
25.138 43.003 13.438
24.581 42.748 14.618
26.42 42.723 13.236
22.488 42.498 11.098
20.104 43.834 13.8
24.867 43.714 11.579
22.233 41.932 12.608
26.976 42.348 13.973
26.832 42.889 12.336
19.623 40.923 13.738
22.756 43.966 13.527
22.798 44.673 12.055
25.149 42.368 15.36
23.615 42.928 14.77
20.62 44.049 11.549
20.235 42.493 11.242
17.891 44.423 12.822
16.526 44.712 12.42
16.709 45.432 11.07
17.618 46.256 10.918
15.808 45.603 13.486
14.315 45.736 13.163
16.48 46.962 13.584
14.012 46.582 11.961
16.103 43.856 12.214
16.041 47.49 14.309
17.447 46.832 13.795
15.899 45.148 14.363
13.944 44.815 13.022
13.861 46.133 13.965
14.449 46.187 11.152
18.568 45.159 13.121
13.022 46.62 11.816
16.383 47.437 12.711
14.36 47.509 12.105
15.897 45.073 10.08
15.985 45.682 8.751
14.678 46.387 8.415
13.606 45.784 8.494
16.262 44.626 7.673
17.511 43.746 7.707
18.749 44.609 7.729
17.466 42.832 8.906
16.655 42.245 8.858
18.286 42.255 8.927
17.427 43.375 9.748
15.207 44.337 10.325
18.741 45.196 8.542
19.568 44.031 7.751
18.778 45.185 6.909
16.721 46.362 8.76
17.519 43.166 6.894
16.264 45.108 6.773
15.457 43.996 7.656
14.772 47.657 8.034
13.596 48.44 7.704
13.768 49.176 6.375
14.866 49.621 6.017
13.266 49.418 8.84
14.364 50.392 9.187
15.532 49.965 9.827
14.248 51.743 8.857
16.566 50.863 10.132
15.278 52.653 9.153
16.428 52.205 9.787
17.449 53.092 10.051
12.809 47.814 7.611
17.389 50.54 10.589
15.176 53.613 8.907
15.742 48.028 7.995
13.426 52.073 8.404
15.637 49.002 10.075
13.053 48.88 9.659
12.454 49.941 8.572
18.093 52.67 10.686
12.668 49.283 5.639
12.677 49.909 4.333
12.049 51.286 4.357
11.443 51.684 5.338
11.934 49.022 3.332
10.587 48.848 3.725
11.812 48.882 6.08
13.641 50.012 4.04
12.381 48.134 3.299
11.96 49.457 2.439
9.983 49.25 3.037
12.203 52.006 3.251
11.669 53.353 3.124
10.144 53.378 3.233
9.579 54.355 3.717
12.133 53.957 1.796
11.999 53.018 0.745
12.733 51.526 2.493
12.039 53.912 3.88
13.089 54.217 1.88
11.574 54.754 1.594
11.513 52.211 1.078
9.487 52.305 2.789
8.032 52.216 2.864
7.607 51.403 4.087
6.5 50.881 4.155
7.44 51.63 1.57
8.127 50.355 1.127
9.162 49.983 1.722
7.633 49.724 0.168
10.089 51.558 2.395
7.682 53.148 2.996
7.537 52.314 0.856
6.479 51.437 1.737
8.528 51.294 5.04
8.305 50.641 6.327
8.009 49.156 6.475
7.211 48.758 7.32
7.271 51.459 7.104
7.626 52.911 7.048
6.994 53.886 6.327
8.791 53.527 7.618
7.699 55.066 6.408
8.805 54.87 7.193
9.826 53.068 8.442
9.817 55.76 7.566
10.827 53.95 8.81
10.815 55.28 8.373
11.557 55.888 8.662
9.166 50.836 6.912
7.446 55.925 5.967
9.845 52.123 8.761
11.566 53.629 9.395
9.798 56.71 7.245
6.146 53.764 5.816
9.455 51.729 4.783
7.286 51.185 8.042
6.395 51.35 6.683
8.652 48.335 5.66
8.504 46.901 5.797
9.575 46.59 6.852
10.663 47.164 6.812
8.835 46.198 4.481
7.916 46.483 3.291
8.361 45.664 2.094
6.475 46.138 3.658
6.188 46.693 4.438
5.879 46.326 2.878
6.416 45.17 3.898
9.244 48.792 4.948
8.319 44.689 2.318
7.76 45.851 1.316
9.301 45.906 1.851
7.635 46.698 6.178
7.965 47.453 3.069
8.811 45.213 4.645
9.759 46.47 4.213
9.281 45.709 7.8
10.256 45.39 8.846
10.602 43.904 8.902
9.716 43.05 8.961
9.743 45.779 10.253
9.117 47.172 10.237
10.899 45.719 11.258
10.091 48.292 10.039
11.106 45.875 8.594
10.544 45.932 12.164
11.285 44.8 11.245
9.039 45.124 10.51
8.43 47.198 9.505
8.638 47.306 11.111
10.563 48.18 9.163
8.345 45.285 7.74
9.605 49.168 10.04
11.588 46.387 10.991
10.766 48.289 10.779
11.895 43.609 8.899
12.382 42.236 8.975
13.474 42.153 10.033
14.043 43.17 10.442
13 41.777 7.648
12.037 41.462 6.531
11.315 42.47 5.9
11.901 40.153 6.062
10.488 42.188 4.825
11.072 39.852 4.985
10.37 40.871 4.37
9.552 40.585 3.308
11.625 41.647 9.259
9.976 42.917 4.371
10.988 38.913 4.664
12.529 44.435 8.838
12.41 39.419 6.508
11.393 43.413 6.227
13.548 40.951 7.832
13.624 42.503 7.33
9.739 41.226 2.565
13.784 40.932 10.453
14.829 40.734 11.441
15.669 39.535 11.057
15.248 38.691 10.258
14.231 40.503 12.833
13.541 39.148 13.016
13.167 38.938 14.474
12.473 37.6 14.701
12.119 37.4 16.133
15.416 41.548 11.465
11.638 37.571 14.147
13.086 36.863 14.407
12.715 39.13 12.462
14.165 38.428 12.732
11.895 38.283 16.545
11.33 36.79 16.197
12.896 36.994 16.613
12.548 39.666 14.758
13.996 38.961 15.027
13.235 40.167 10.029
13.556 41.221 13.007
14.968 40.568 13.505
16.874 39.488 11.602
17.771 38.367 11.397
18.481 38.192 12.722
18.739 39.173 13.413
18.824 38.614 10.271
19.696 37.477 10.19
19.663 39.878 10.537
17.238 37.558 11.215
19.638 40.468 9.73
19.284 40.367 11.322
17.119 40.319 12.185
18.332 38.706 9.388
20.608 39.613 10.73
19.26 36.741 9.662
18.76 36.945 13.09
19.47 36.656 14.332
20.658 35.753 14.03
21.397 35.362 14.935
18.567 35.952 15.379
17.931 34.814 14.786
17.526 36.904 15.921
19.814 37.515 14.711
17.03 37.341 15.164
16.868 36.406 16.495
18.436 36.212 12.431
19.155 35.628 16.147
17.966 37.617 16.476
17.852 34.936 13.791
20.847 35.452 12.745
21.919 34.573 12.299
22.85 35.239 11.293
23.255 34.629 10.3
21.326 33.302 11.675
20.35 33.603 10.547
20.376 34.741 10.019
19.563 32.701 10.182
20.165 35.898 12.094
22.479 34.346 13.114
20.847 32.806 12.387
22.075 32.761 11.313
23.188 36.491 11.563
24.078 37.27 10.712
23.685 37.285 9.229
24.497 36.976 8.351
25.53 36.79 10.863
26.546 37.881 10.68
22.762 36.874 12.44
24.076 38.235 11.043
25.708 36.075 10.18
25.649 36.398 11.78
26.52 39.193 11.024
28.099 36.788 9.741
29.384 38.915 9.729
28.465 38.795 10.091
27.777 37.665 10.1
27.724 39.737 10.647
25.769 39.673 11.468
22.434 37.656 8.968
21.901 37.782 7.611
21.731 36.503 6.793
21.493 36.572 5.592
22.748 38.771 6.793
23.182 40.017 7.535
24.427 40.074 8.168
22.356 41.142 7.608
24.84 41.217 8.848
22.766 42.301 8.296
24.011 42.326 8.907
24.458 43.467 9.55
20.973 38.233 7.681
25.739 41.236 9.294
22.162 43.09 8.339
21.858 37.852 9.822
21.465 41.131 7.169
25.034 39.279 8.133
22.21 39.054 5.997
23.569 38.29 6.481
23.798 44.2 9.404
21.849 35.335 7.41
21.664 34.11 6.642
20.198 34.018 6.221
19.897 33.807 5.047
22.059 32.891 7.465
23.515 32.909 7.898
23.915 31.67 8.673
24.092 32.975 7.082
22.215 34.175 5.813
23.668 33.711 8.477
22.067 35.369 8.406
21.908 32.068 6.918
21.491 32.857 8.286
24.189 32.79 10.336
23.944 30.566 8.121
24.226 31.844 9.962
24.49 31.055 10.545
19.296 34.187 7.186
17.854 34.143 6.93
17.191 35.34 7.611
17.753 35.932 8.549
17.198 32.868 7.495
17.219 32.928 8.923
17.939 31.611 7.022
17.703 34.217 5.946
17.274 30.901 6.783
18.493 31.832 6.218
19.7 34.352 8.132
16.227 32.837 7.19
18.533 31.278 7.755
18.155 32.796 9.266
15.994 35.681 7.142
15.243 36.815 7.668
13.805 36.427 7.956
13.265 35.52 7.326
15.232 37.956 6.648
16.595 38.457 6.27
17.185 39.503 6.97
17.292 37.882 5.209
18.445 39.969 6.621
18.554 38.339 4.852
19.132 39.388 5.562
20.039 39.724 5.313
15.663 37.06 8.55
18.856 40.729 7.138
19.045 37.911 4.081
15.642 35.072 6.372
16.876 37.128 4.699
16.702 39.924 7.732
14.726 38.71 7.044
14.789 37.623 5.827
13.187 37.125 8.903
11.789 36.893 9.26
11.076 38.238 9.216
11.561 39.215 9.775
11.627 36.329 10.689
12.248 35.044 10.783
10.146 36.202 11.037
11.381 36.296 8.578
9.907 35.235 11.147
9.957 36.689 11.893
13.78 37.847 9.366
12.094 36.959 11.343
9.591 36.598 10.302
13.179 35.075 10.403
9.928 38.288 8.551
9.152 39.519 8.453
8.387 39.7 9.761
7.678 38.799 10.199
8.185 39.423 7.262
7.33 40.665 6.986
6.6 40.513 5.633
5.549 41.597 5.373
6.111 42.979 5.281
9.773 40.289 8.335
5.07 41.379 4.51
4.867 41.569 6.119
6.652 40.76 7.701
7.915 41.462 6.941
7.079 42.925 5.041
5.617 43.488 4.578
6.008 43.435 6.163
6.147 39.621 5.618
7.283 40.55 4.902
9.636 37.391 8.115
7.564 38.649 7.427
8.725 39.23 6.437
8.538 40.85 10.406
7.831 41.06 11.662
6.795 42.17 11.622
6.039 42.354 12.568
8.815 41.276 12.84
9.861 42.344 12.492
9.493 39.951 13.171
10.843 42.627 13.632
7.325 40.197 11.849
10.099 40.085 13.952
8.792 39.277 13.393
8.289 41.601 13.619
10.375 42.039 11.698
9.385 43.19 12.27
11.328 41.787 13.855
9.158 41.534 9.967
11.488 43.326 13.336
10.018 39.651 12.378
10.333 42.948 14.425
6.758 42.905 10.519
5.77 43.958 10.336
5.535 44.094 8.832
6.466 43.759 8.058
6.264 45.289 10.906
6.526 45.299 12.415
5.247 45.254 13.248
5.538 45.464 14.665
6.244 44.62 15.416
6.718 43.507 14.884
6.501 44.894 16.69
4.433 44.544 8.45
4.919 43.688 10.767
5.183 46.298 15.101
7.083 44.502 12.658
7.024 46.134 12.657
7.01 44.258 17.252
6.175 45.76 17.087
7.481 42.668 9.811
4.833 44.362 13.124
4.645 45.972 12.924
7.238 42.861 15.468
6.572 43.298 13.923
5.576 45.988 10.713
7.12 45.529 10.447
