5.263 -9.193 -18.88
6.178 -8.06 -18.56
5.809 -7.423 -17.224
4.971 -6.525 -17.159
6.124 -7.009 -19.669
7.039 -5.819 -19.434
8.753 -6.303 -19.162
9.435 -6.177 -20.837
8.952 -6.815 -21.433
9.314 -5.244 -21.168
10.406 -6.405 -20.811
5.773 -9.887 -19.383
4.913 -9.576 -18.028
6.963 -5.187 -20.239
6.681 -5.286 -18.634
4.509 -8.852 -19.437
7.106 -8.435 -18.488
5.177 -6.671 -19.753
6.382 -7.442 -20.542
6.451 -7.904 -16.163
6.226 -7.423 -14.804
6.916 -6.079 -14.578
7.911 -5.767 -15.232
6.765 -8.459 -13.812
6.807 -8.018 -12.354
5.442 -8.068 -11.687
5.561 -7.759 -10.199
4.26 -7.889 -9.484
5.236 -7.304 -14.659
6.227 -8.392 -9.789
5.904 -6.82 -10.09
7.436 -8.62 -11.851
7.156 -7.077 -12.308
4.431 -8.013 -8.507
3.72 -7.061 -9.628
3.764 -8.68 -9.841
5.064 -8.978 -11.791
4.854 -7.389 -12.104
7.138 -8.665 -16.389
7.699 -8.702 -14.093
6.188 -9.279 -13.874
6.39 -5.288 -13.647
6.972 -3.984 -13.357
7.107 -3.733 -11.859
6.197 -4.024 -11.083
6.123 -2.878 -13.992
6.832 -1.536 -14.104
6.02 -0.554 -14.933
6.86 0.641 -15.352
7.4 1.379 -14.182
7.893 -3.937 -13.776
7.623 0.318 -15.92
6.291 1.262 -15.901
6.96 -1.158 -13.188
7.72 -1.671 -14.54
7.571 2.331 -14.438
6.737 1.349 -13.434
8.256 0.955 -13.886
5.254 -0.229 -14.389
5.694 -1.016 -15.751
5.56 -5.669 -13.164
5.304 -2.756 -13.433
5.863 -3.173 -14.909
8.259 -3.205 -11.461
8.526 -2.884 -10.065
8.888 -1.404 -10.009
9.713 -0.932 -10.793
9.679 -3.727 -9.537
8.948 -3.042 -12.226
7.701 -3.031 -9.534
9.411 -4.69 -9.528
10.477 -3.609 -10.128
9.907 -3.436 -8.608
8.271 -0.672 -9.088
8.538 0.756 -8.968
9.094 1.154 -7.61
8.567 0.763 -6.569
7.258 1.588 -9.218
7.567 3.075 -9.079
6.703 1.29 -10.6
9.227 1.006 -9.673
6.728 3.602 -9.207
7.4 1.492 -11.288
6.607 1.358 -8.506
7.938 3.254 -8.169
8.237 3.341 -9.771
7.609 -1.187 -8.486
6.449 0.324 -10.654
5.896 1.858 -10.763
10.166 1.936 -7.636
10.786 2.436 -6.419
10.675 3.955 -6.467
11.206 4.588 -7.378
12.285 2.078 -6.34
12.469 0.562 -6.286
12.908 2.725 -5.102
11.815 -0.201 -5.099
10.216 2.135 -5.667
13.881 2.507 -5.082
12.777 3.712 -5.157
12.723 2.414 -7.167
12.11 0.159 -7.141
13.46 0.358 -6.264
10.836 -0.045 -5.132
10.519 2.157 -8.591
12.02 -1.166 -5.2
12.457 2.362 -4.29
12.198 0.152 -4.255
9.96 4.538 -5.512
9.834 5.989 -5.465
10.988 6.466 -4.596
10.881 6.548 -3.369
8.482 6.399 -4.876
7.312 5.894 -5.708
9.996 6.33 -6.377
9.52 3.898 -4.834
8.441 7.392 -4.842
8.407 6.017 -3.961
6.699 4.875 -5.391
7.012 6.601 -6.792
6.251 6.324 -7.376
7.55 7.413 -7.025
12.101 6.755 -5.262
13.313 7.18 -4.587
13.195 8.231 -3.505
13.957 8.199 -2.537
12.025 6.65 -6.296
13.78 6.342 -4.186
13.99 7.514 -5.302
12.256 9.161 -3.655
12.095 10.222 -2.668
11.434 9.756 -1.376
11.266 10.543 -0.442
11.305 11.394 -3.267
9.794 11.21 -3.359
9.368 10.069 -4.263
10.147 9.675 -5.157
8.234 9.576 -4.087
9.453 11.016 -2.453
13.006 10.623 -2.452
9.404 12.04 -3.724
11.673 9.067 -4.501
11.643 11.543 -4.187
11.474 12.189 -2.698
11.067 8.479 -1.321
10.429 7.912 -0.137
11.377 6.97 0.597
11.065 6.482 1.683
9.158 7.154 -0.532
8.09 8.023 -1.178
6.883 7.226 -1.637
7.786 8.705 -0.513
10.204 8.669 0.487
8.488 8.484 -1.971
11.271 7.93 -2.179
8.765 6.737 0.291
9.405 6.43 -1.18
7.786 5.513 -1.058
5.909 7.788 -2.142
6.941 5.909 -1.467
6.162 5.311 -1.739
12.533 6.713 -0.004
13.532 5.831 0.59
14.369 6.661 1.555
15.043 7.601 1.139
14.46 5.233 -0.489
13.625 4.572 -1.592
15.415 4.227 0.141
14.421 4.23 -2.831
13.033 5.171 1.14
16.026 3.875 -0.565
15.943 4.685 0.853
14.974 5.977 -0.896
13.221 3.738 -1.223
12.891 5.2 -1.844
15.154 3.595 -2.59
12.663 7.188 -0.921
13.819 3.805 -3.505
14.883 3.481 0.536
14.814 5.065 -3.214
14.334 6.309 2.837
15.075 7.06 3.846
16.258 6.333 4.469
16.963 6.897 5.306
14.117 7.505 4.949
13.365 6.364 5.601
12.093 6.883 6.232
11.271 5.821 6.797
9.974 5.954 7.048
9.365 7.101 6.78
9.286 4.944 7.562
13.925 5.96 6.312
15.42 7.925 3.414
11.707 4.944 7.008
13.123 5.69 4.916
8.317 5.044 7.769
9.744 4.068 7.744
13.753 5.481 3.05
11.57 7.365 5.527
12.343 7.526 6.957
8.379 7.199 6.992
9.864 7.859 6.374
13.452 8.129 4.551
14.646 7.971 5.652
16.478 5.085 4.069
17.594 4.307 4.597
17.744 3.034 3.782
16.876 2.704 2.974
17.346 3.934 6.061
16.311 2.971 6.166
15.807 4.723 3.369
18.429 4.846 4.487
17.079 4.752 6.559
18.182 3.555 6.441
15.424 3.428 6.116
18.84 2.318 3.997
19.07 1.076 3.273
18.051 0.02 3.713
17.63 -0.814 2.909
20.509 0.556 3.496
20.76 -0.67 2.617
20.733 0.228 4.967
20.949 -0.367 1.133
18.88 1.268 2.31
21.676 -0.073 5.091
20.561 1.047 5.51
21.137 1.271 3.217
21.578 -1.141 2.953
19.98 -1.293 2.714
21.735 0.236 1.022
19.491 2.706 4.698
21.106 -1.222 0.645
20.104 -0.499 5.235
20.127 0.077 0.785
17.652 0.059 4.983
16.661 -0.889 5.49
15.348 -0.638 4.775
14.679 -1.565 4.319
16.446 -0.707 6.994
15.276 -1.388 7.416
18.09 0.795 5.56
16.97 -1.81 5.263
16.345 0.262 7.188
17.23 -1.079 7.477
15.342 -2.352 7.162
14.988 0.637 4.681
13.755 1.039 4.026
13.767 0.611 2.562
12.734 0.229 2.007
13.584 2.555 4.142
12.212 3.02 3.707
11.215 2.374 4.093
12.127 4.039 2.991
15.656 1.31 5.111
13.002 0.542 4.47
14.268 2.985 3.565
13.722 2.807 5.093
14.938 0.674 1.935
15.061 0.273 0.54
14.724 -1.21 0.394
13.989 -1.603 -0.514
16.481 0.543 0.032
16.784 0.16 -1.419
15.709 0.707 -2.346
18.154 0.695 -1.802
18.849 0.301 -1.2
18.358 0.448 -2.75
18.163 1.691 -1.71
15.725 1.021 2.507
15.679 1.704 -2.272
15.918 0.45 -3.29
14.82 0.328 -2.088
14.407 0.8 -0.007
16.812 -0.835 -1.492
17.114 0.034 0.612
16.656 1.523 0.123
15.254 -2.029 1.297
14.991 -3.464 1.26
13.526 -3.786 1.543
12.964 -4.697 0.936
15.897 -4.198 2.255
17.356 -4.089 1.934
15.852 -1.573 2.007
15.215 -3.806 0.335
15.647 -5.172 2.265
15.746 -3.819 3.174
18.37 -3.465 2.581
17.417 -5.198 0.13
19.85 -4.694 0.08
19.21 -4.398 0.782
17.916 -4.663 0.813
19.51 -3.671 1.845
18.302 -2.952 3.432
12.907 -3.042 2.458
11.498 -3.264 2.782
10.635 -2.971 1.56
9.671 -3.684 1.281
11.052 -2.366 3.939
11.717 -2.658 5.274
11.098 -1.868 6.414
11.622 -3.632 5.475
11.383 -4.231 3.015
12.685 -2.42 5.21
13.491 -2.317 2.905
10.057 -2.467 4.058
11.248 -1.409 3.696
9.669 -1.175 5.163
11.587 -1.897 7.543
10.011 -1.16 6.123
9.533 -0.616 6.84
10.988 -1.916 0.831
10.248 -1.532 -0.364
10.399 -2.598 -1.447
9.432 -2.958 -2.118
10.742 -0.177 -0.907
10.623 0.817 0.118
9.916 0.248 -2.107
9.274 -1.458 -0.129
9.434 -0.545 -2.489
9.242 0.939 -1.831
11.819 -1.402 1.181
11.727 -0.262 -1.155
10.514 0.638 -2.813
11.314 0.666 0.833
11.616 -3.105 -1.617
11.863 -4.143 -2.611
11.064 -5.393 -2.253
10.479 -6.041 -3.121
13.354 -4.484 -2.671
14.263 -3.438 -3.317
15.714 -3.877 -3.199
13.872 -3.261 -4.777
12.921 -2.957 -4.835
14.465 -2.577 -5.202
13.972 -4.132 -5.258
12.347 -2.711 -1.002
15.838 -4.755 -3.663
16.307 -3.191 -3.622
15.957 -3.975 -2.233
11.553 -3.814 -3.504
14.14 -2.567 -2.849
13.453 -5.327 -3.191
13.674 -4.619 -1.736
11.038 -5.724 -0.966
10.305 -6.894 -0.504
8.838 -6.772 -0.908
8.226 -7.735 -1.361
10.416 -7.021 1.02
9.716 -8.249 1.594
9.847 -8.304 3.109
9.142 -9.525 3.684
9.269 -9.593 5.171
10.689 -7.713 -0.935
8.17 -9.485 3.44
9.544 -10.352 3.283
8.747 -8.212 1.354
10.128 -9.071 1.203
10.234 -9.67 5.415
8.885 -8.763 5.572
8.771 -10.391 5.507
9.434 -7.488 3.499
10.811 -8.354 3.347
11.57 -5.094 -0.34
10.009 -6.208 1.43
11.383 -7.072 1.259
8.284 -5.575 -0.752
6.885 -5.333 -1.09
6.642 -5.317 -2.6
5.781 -6.036 -3.107
6.427 -4.007 -0.475
4.921 -3.793 -0.503
4.219 -4.77 0.429
2.718 -4.527 0.473
2.075 -4.766 -0.848
6.319 -6.067 -0.682
2.309 -5.141 1.154
2.551 -3.577 0.754
4.718 -2.862 -0.207
4.587 -3.935 -1.431
2.09 -5.745 -1.052
1.129 -4.444 -0.819
2.577 -4.269 -1.556
4.585 -4.659 1.348
4.381 -5.697 0.104
8.917 -4.844 -0.378
6.86 -3.263 -0.983
6.73 -3.984 0.476
7.402 -4.495 -3.316
7.258 -4.386 -4.768
7.468 -5.686 -5.531
6.769 -5.962 -6.507
8.223 -3.334 -5.321
7.679 -1.931 -5.281
6.342 -1.819 -5.99
6.298 -1.942 -7.237
5.334 -1.616 -5.29
7.537 -1.675 -4.345
6.328 -4.016 -4.984
8.306 -1.335 -5.744
8.093 -3.948 -2.768
8.405 -3.565 -6.26
9.038 -3.362 -4.769
8.441 -6.478 -5.095
8.744 -7.736 -5.761
8.042 -8.932 -5.129
8.241 -10.068 -5.555
10.258 -7.963 -5.767
11.058 -6.922 -6.555
12.544 -7.127 -6.321
10.727 -7.032 -8.038
9.75 -6.871 -8.175
11.251 -6.351 -8.549
10.962 -7.947 -8.366
8.95 -6.13 -4.263
12.809 -8.044 -6.624
13.063 -6.445 -6.838
12.748 -7.029 -5.346
8.445 -7.668 -6.729
10.794 -6.011 -6.248
10.433 -8.846 -6.177
10.575 -7.933 -4.83
7.212 -8.668 -4.122
6.479 -9.724 -3.427
7.43 -10.84 -3.011
7.184 -12.015 -3.275
5.379 -10.281 -4.33
7.132 -7.661 -3.877
6.058 -9.336 -2.602
5.336 -11.273 -4.226
4.502 -9.879 -4.07
5.583 -10.052 -5.28
8.516 -10.461 -2.347
9.511 -11.429 -1.905
9.028 -12.267 -0.721
8.064 -11.902 -0.041
10.805 -10.701 -1.537
11.406 -9.834 -2.649
12.745 -9.268 -2.181
11.589 -10.662 -3.919
10.702 -11.012 -4.218
11.981 -10.088 -4.637
12.203 -11.427 -3.731
8.591 -9.441 -2.175
13.368 -10.021 -1.97
13.138 -8.702 -2.905
12.603 -8.712 -1.363
9.714 -12.057 -2.673
10.783 -9.086 -2.85
11.482 -11.383 -1.294
10.613 -10.104 -0.768
9.692 -13.409 -0.465
9.308 -14.282 0.65
9.357 -13.548 1.986
10.152 -12.626 2.169
10.331 -15.412 0.571
10.629 -15.489 -0.9
10.769 -14.027 -1.26
11.474 -15.976 -1.06
8.392 -14.677 0.493
10.62 -13.877 -2.232
11.656 -13.67 -0.988
9.876 -15.904 -1.387
9.944 -16.268 0.899
11.152 -15.186 1.087
8.508 -13.974 2.916
8.423 -13.357 4.235
9.75 -13.293 4.979
9.983 -12.374 5.762
7.403 -14.108 5.098
7.58 -15.621 5.095
6.669 -16.328 6.085
5.555 -15.827 6.332
7.064 -17.393 6.605
7.359 -15.955 4.197
8.046 -12.413 4.141
8.508 -15.824 5.349
7.914 -14.78 2.624
6.508 -13.912 4.742
7.51 -13.798 6.025
10.619 -14.264 4.723
11.91 -14.339 5.393
13.037 -13.56 4.717
14.19 -13.65 5.142
12.313 -15.809 5.539
12.34 -16.557 4.226
13.371 -16.359 3.31
11.317 -17.441 3.886
13.385 -17.022 2.087
11.32 -18.111 2.661
12.356 -17.895 1.769
12.363 -18.545 0.555
11.798 -13.966 6.34
14.135 -16.87 1.442
10.579 -18.739 2.434
10.302 -14.956 4.013
10.57 -17.6 4.527
14.116 -15.728 3.533
11.655 -16.254 6.138
13.223 -15.844 5.938
12.745 -17.938 -0.139
12.713 -12.799 3.673
13.719 -12.014 2.953
14.746 -11.399 3.904
14.39 -10.657 4.824
13.038 -10.909 2.137
13.998 -10.002 1.397
14.885 -10.514 0.452
14.01 -8.628 1.635
15.759 -9.682 -0.242
14.882 -7.782 0.947
15.754 -8.317 0.01
16.625 -7.494 -0.671
14.208 -12.632 2.322
16.387 -10.066 -0.92
14.877 -6.802 1.129
11.708 -12.81 3.419
13.384 -8.24 2.308
14.896 -11.498 0.267
12.499 -10.348 2.762
12.438 -11.341 1.467
17.562 -7.752 -0.445
16.019 -11.708 3.66
17.107 -11.233 4.502
17.436 -9.751 4.542
18.203 -9.311 5.401
16.163 -12.312 2.823
16.93 -11.558 5.481
17.975 -11.757 4.243
16.885 -8.972 3.621
17.147 -7.535 3.612
18.637 -7.177 3.587
19.104 -6.342 4.365
16.468 -6.884 4.822
14.949 -6.808 4.694
14.268 -6.282 5.948
14.829 -5.383 6.609
13.159 -6.76 6.264
14.734 -6.192 3.958
16.691 -7.113 2.805
14.608 -7.716 4.53
16.279 -9.45 2.938
16.805 -5.967 4.898
16.672 -7.431 5.61
19.375 -7.824 2.691
20.802 -7.571 2.517
21.143 -7.879 1.061
20.312 -8.431 0.335
21.636 -8.428 3.484
21.465 -9.915 3.258
20.95 -6.599 2.651
18.848 -8.526 2.124
21.352 -8.209 4.415
22.597 -8.192 3.358
21.928 -10.461 2.26
20.795 -10.582 4.192
20.653 -11.568 4.103
20.43 -10.096 4.988
22.347 -7.524 0.626
22.74 -7.741 -0.768
22.729 -9.197 -1.218
22.384 -9.495 -2.361
24.117 -7.129 -1.029
24.209 -5.615 -0.822
25.633 -5.156 -1.067
23.242 -4.896 -1.765
22.309 -5.198 -1.575
23.311 -3.91 -1.621
23.479 -5.114 -2.711
22.964 -7.094 1.334
25.903 -5.379 -2.005
25.696 -4.166 -0.932
26.251 -5.616 -0.427
22.095 -7.218 -1.364
23.944 -5.4 0.114
24.362 -7.315 -1.972
24.763 -7.553 -0.406
23.115 -10.107 -0.332
23.117 -11.516 -0.688
21.692 -12.038 -0.826
21.402 -12.841 -1.717
23.897 -12.309 0.358
25.369 -11.957 0.35
26.04 -12.251 -0.662
25.851 -11.37 1.341
23.399 -9.741 0.586
23.548 -11.597 -1.594
23.796 -13.272 0.152
23.521 -12.095 1.249
20.802 -11.574 0.046
19.402 -11.983 -0.015
18.772 -11.416 -1.287
17.929 -12.059 -1.904
18.648 -11.481 1.213
21.178 -10.917 0.751
19.356 -12.98 -0.054
19.165 -11.709 2.037
18.537 -10.49 1.153
17.749 -11.916 1.252
19.176 -10.209 -1.674
18.635 -9.605 -2.892
19.064 -10.426 -4.103
18.25 -10.743 -4.973
19.12 -8.16 -3.042
18.713 -7.438 -4.33
17.197 -7.449 -4.478
19.241 -6.011 -4.295
20.238 -6.025 -4.221
18.977 -5.536 -5.135
18.856 -5.531 -3.507
19.872 -9.757 -1.068
16.782 -6.984 -3.696
16.94 -6.976 -5.321
16.872 -8.394 -4.515
17.636 -9.617 -2.838
19.126 -7.905 -5.108
20.115 -8.166 -3.007
18.753 -7.634 -2.279
20.347 -10.769 -4.17
20.841 -11.577 -5.278
20.073 -12.894 -5.315
19.698 -13.373 -6.382
22.342 -11.85 -5.119
22.884 -12.805 -6.137
23.221 -14.118 -5.936
23.147 -12.53 -7.519
23.681 -14.672 -7.108
23.647 -13.721 -8.095
23.01 -11.392 -8.329
24.012 -13.808 -9.443
23.375 -11.478 -9.673
23.871 -12.678 -10.215
24.123 -12.7 -11.181
20.644 -11.089 -6.127
23.99 -15.615 -7.223
22.66 -10.538 -7.96
23.282 -10.676 -10.251
24.363 -14.67 -9.818
23.145 -14.602 -5.068
20.937 -10.425 -3.398
22.502 -12.246 -4.224
22.835 -10.996 -5.221
19.843 -13.477 -4.141
19.109 -14.73 -4.045
17.698 -14.565 -4.601
17.172 -15.467 -5.25
19.046 -15.191 -2.597
20.225 -12.97 -3.32
19.586 -15.43 -4.587
19.828 -15.782 -2.4
19.07 -14.396 -1.991
18.199 -15.699 -2.444
17.088 -13.412 -4.342
15.738 -13.155 -4.828
15.721 -12.939 -6.336
14.78 -13.355 -7.014
15.145 -11.939 -4.122
17.638 -12.738 -3.785
15.158 -13.952 -4.611
14.5 -12.243 -3.422
15.878 -11.413 -3.694
14.669 -11.367 -4.789
16.756 -12.29 -6.865
16.813 -12.031 -8.3
17.158 -13.272 -9.11
16.874 -13.334 -10.304
17.823 -10.919 -8.616
17.58 -9.554 -7.969
18.544 -8.543 -8.569
16.134 -9.106 -8.207
15.511 -9.775 -7.806
15.99 -8.215 -7.78
15.967 -9.038 -9.189
17.484 -11.999 -6.197
18.392 -8.479 -9.556
18.392 -7.646 -8.152
19.486 -8.834 -8.397
15.904 -11.696 -8.601
17.739 -9.626 -6.991
17.826 -10.784 -9.606
18.724 -11.234 -8.317
17.77 -14.263 -8.468
18.139 -15.486 -9.165
17.266 -16.681 -8.784
17.329 -17.731 -9.429
19.627 -15.849 -8.909
19.879 -15.917 -7.498
20.541 -14.801 -9.532
18.039 -15.33 -10.164
20.273 -14.64 -10.485
20.47 -13.941 -9.021
17.953 -14.092 -7.466
19.81 -16.768 -9.312
21.491 -15.121 -9.507
19.797 -15.004 -7.085
16.446 -16.519 -7.748
15.602 -17.615 -7.307
14.185 -17.28 -6.875
13.603 -18.008 -6.069
16.466 -15.588 -7.31
15.559 -18.326 -8.061
16.077 -18.108 -6.529
13.618 -16.191 -7.387
12.249 -15.836 -7.024
11.57 -14.926 -8.036
10.493 -15.245 -8.547
12.203 -15.172 -5.644
10.805 -14.799 -5.233
10.185 -13.595 -5.42
9.836 -15.659 -4.624
8.885 -13.655 -4.965
8.647 -14.911 -4.471
9.857 -16.993 -4.193
7.488 -15.454 -3.907
8.705 -17.532 -3.634
7.537 -16.761 -3.494
6.73 -17.186 -3.083
11.712 -16.698 -6.979
8.226 -12.907 -4.991
10.678 -17.548 -4.284
8.71 -18.478 -3.329
6.661 -14.894 -3.815
10.608 -12.788 -5.826
14.204 -15.646 -8.032
12.734 -14.34 -5.669
12.548 -15.805 -4.97
12.2 -13.794 -8.321
11.639 -12.836 -9.263
11.462 -13.442 -10.648
12.328 -14.163 -11.142
12.527 -11.575 -9.363
11.984 -10.635 -10.43
12.57 -10.87 -8.022
10.727 -12.56 -8.926
12.01 -11.09 -11.32
12.239 -11.49 -7.309
13.429 -11.866 -9.661
11.04 -10.389 -10.209
12.545 -9.808 -10.463
13.1 -13.656 -7.828
13.512 -10.599 -7.818
11.988 -10.057 -8.054
10.321 -13.153 -11.267
10.031 -13.66 -12.6
10.287 -12.577 -13.64
10.003 -11.397 -13.416
8.582 -14.151 -12.676
8.323 -15.368 -11.802
6.886 -15.847 -11.855
6.399 -16.165 -12.961
6.246 -15.909 -10.784
8.894 -16.104 -12.121
10.612 -14.456 -12.795
8.522 -15.126 -10.868
9.673 -12.549 -10.728
8.401 -14.405 -13.604
8.005 -13.427 -12.358
10.83 -12.989 -14.778
11.159 -12.067 -15.854
10.285 -12.307 -17.079
9.67 -13.367 -17.213
12.64 -12.221 -16.191
13.513 -11.975 -14.985
13.677 -10.689 -14.48
14.118 -13.033 -14.306
14.419 -10.455 -13.326
14.865 -12.81 -13.145
15.007 -11.517 -12.665
15.727 -11.27 -11.518
10.991 -11.126 -15.53
14.523 -9.522 -12.979
15.29 -13.575 -12.67
10.998 -14.016 -14.833
14.017 -13.962 -14.65
13.255 -9.913 -14.954
12.874 -11.558 -16.886
12.795 -13.144 -16.507
16.096 -12.13 -11.171
10.223 -11.328 -17.997
10.906 -10.03 -17.961
10.403 -9.074 -16.883
9.228 -9.09 -16.513
10.672 -9.487 -19.366
9.308 -10.006 -19.677
9.379 -11.435 -19.202
8.614 -9.499 -19.176
11.917 -10.165 -17.873
9.81 -12.025 -19.881
8.477 -11.787 -18.968
9.129 -9.965 -20.654
11.345 -9.845 -20.003
10.686 -8.493 -19.369
11.312 -8.237 -16.393
11.002 -7.265 -15.353
11.463 -5.865 -15.73
12.558 -5.684 -16.255
11.696 -7.657 -14.04
11.7 -6.622 -12.907
10.32 -6.53 -12.284
12.726 -7.019 -11.855
13.634 -7.058 -12.271
12.728 -6.344 -11.117
12.493 -7.917 -11.482
12.262 -8.336 -16.816
10.058 -7.422 -11.912
10.328 -5.854 -11.546
9.654 -6.253 -12.979
10 -7.245 -15.22
11.958 -5.735 -13.283
12.65 -7.869 -14.252
11.242 -8.477 -13.69
10.613 -4.88 -15.473
10.977 -3.493 -15.714
11.07 -2.888 -14.323
10.085 -2.86 -13.587
9.906 -2.725 -16.524
10.27 -1.242 -16.586
9.816 -3.286 -17.93
11.872 -3.47 -16.119
11.254 -1.137 -16.453
10.697 -3.685 -18.186
9.05 -2.793 -16.03
10.011 -0.875 -17.478
9.781 -0.751 -15.867
9.695 -5.178 -15.097
9.107 -3.992 -17.962
9.584 -2.55 -18.568
12.265 -2.449 -13.946
12.465 -1.831 -12.645
12.579 -0.328 -12.852
13.543 0.141 -13.452
13.752 -2.341 -11.989
14.144 -1.602 -10.701
13.148 -1.93 -9.597
15.548 -2.003 -10.279
16.197 -1.767 -11.003
15.798 -1.519 -9.44
15.58 -2.989 -10.114
13.021 -2.583 -14.642
13.15 -2.916 -9.427
13.406 -1.447 -8.76
12.232 -1.643 -9.877
11.669 -2.013 -12.075
14.136 -0.622 -10.877
14.491 -2.225 -12.633
13.62 -3.292 -11.755
11.591 0.422 -12.379
11.646 1.871 -12.511
12.019 2.449 -11.161
11.262 2.334 -10.199
10.305 2.459 -12.95
10.423 3.94 -13.302
9.094 4.593 -13.614
8.191 3.894 -14.12
8.96 5.811 -13.369
10.813 4.407 -12.527
12.331 2.124 -13.188
10.992 4.02 -14.103
10.819 -0.089 -11.932
9.683 2.382 -12.204
10.018 1.987 -13.753
13.196 3.058 -11.096
13.679 3.663 -9.863
13.645 5.175 -10.081
14.549 5.741 -10.693
15.115 3.203 -9.582
15.586 3.427 -8.164
15.256 4.465 -7.338
16.524 2.62 -7.436
15.933 4.357 -6.143
16.719 3.235 -6.176
17.223 1.439 -7.729
17.585 2.708 -5.207
18.088 0.914 -6.763
18.259 1.552 -5.518
18.886 1.146 -4.855
13.035 3.451 -9.143
15.862 4.993 -5.377
17.112 0.977 -8.601
18.586 0.081 -6.964
17.696 3.172 -4.325
14.617 5.198 -7.564
13.733 3.065 -11.986
15.737 3.703 -10.178
15.182 2.225 -9.759
12.585 5.814 -9.598
12.42 7.26 -9.739
13.239 8.008 -8.689
13.415 7.525 -7.573
10.943 7.628 -9.589
10.021 6.897 -10.553
8.574 6.958 -10.08
7.666 6.256 -10.985
6.403 5.956 -10.695
5.893 6.293 -9.518
5.648 5.317 -11.582
10.288 5.941 -10.608
12.741 7.536 -10.652
8.02 5.981 -11.887
10.072 7.323 -11.45
4.709 5.074 -11.363
6.028 5.079 -12.48
11.891 5.206 -9.117
8.309 7.918 -10.025
8.527 6.54 -9.176
4.938 6.043 -9.302
6.441 6.788 -8.851
10.847 8.605 -9.752
10.659 7.405 -8.661
13.737 9.186 -9.054
14.524 10.006 -8.135
15.633 9.22 -7.452
15.789 9.279 -6.228
13.611 10.631 -7.076
12.734 11.754 -7.608
13.549 12.938 -8.094
12.194 11.405 -8.371
14.956 10.746 -8.675
12.128 12.062 -6.877
13.522 9.467 -10.03
14.18 11.002 -6.34
13.014 9.918 -6.706
12.727 12.758 -9.932
14.326 13.521 -7.338
13.377 13.299 -9.362
13.88 14.093 -9.753
16.404 8.488 -8.246
17.501 7.698 -7.708
18.481 8.575 -6.943
19.02 8.164 -5.912
18.265 6.988 -8.825
19.399 6.15 -8.323
19.177 4.849 -7.881
20.678 6.685 -8.218
20.216 4.094 -7.338
21.72 5.938 -7.675
21.485 4.641 -7.233
22.23 4.102 -6.84
17.103 7.056 -7.041
20.034 3.156 -7.025
22.643 6.344 -7.604
16.163 8.528 -9.252
20.853 7.616 -8.536
18.27 4.448 -7.952
18.634 7.679 -9.425
17.63 6.398 -9.297
18.724 9.774 -7.466
19.648 10.708 -6.834
19.303 10.931 -5.363
20.197 11.085 -4.529
19.665 12.046 -7.594
18.288 12.635 -7.894
17.744 12.228 -9.257
17.842 11.041 -9.619
17.202 13.102 -9.967
17.659 12.306 -7.214
20.591 10.354 -6.905
18.364 13.616 -7.887
18.21 9.98 -8.343
20.118 11.893 -8.457
20.152 12.698 -7.037
18.013 10.942 -5.037
17.598 11.131 -3.651
17.929 9.899 -2.813
18.389 10.016 -1.676
16.098 11.437 -3.569
15.727 12.84 -4.039
14.305 13.224 -3.677
16.353 13.494 -3.614
18.116 11.906 -3.274
15.827 12.88 -5.033
17.358 10.81 -5.822
15.802 11.34 -2.617
15.605 10.779 -4.138
13.904 13.598 -5.621
13.923 13.201 -2.506
13.514 13.585 -4.679
12.542 13.843 -4.513
17.7 8.716 -3.376
17.994 7.478 -2.664
19.485 7.405 -2.36
19.886 6.937 -1.295
17.583 6.266 -3.507
16.193 6.282 -3.764
17.308 8.752 -4.331
17.502 7.494 -1.792
17.813 5.438 -3.007
18.076 6.296 -4.37
15.699 5.964 -2.955
20.299 7.874 -3.301
21.749 7.862 -3.146
22.132 8.7 -1.928
22.989 8.31 -1.135
22.413 8.437 -4.402
23.93 8.418 -4.365
24.521 9.014 -5.636
24.128 8.212 -6.87
24.706 8.782 -8.122
22.055 6.921 -2.997
24.451 7.267 -6.76
23.126 8.202 -6.946
24.246 8.953 -3.582
24.245 7.474 -4.275
24.343 8.285 -8.909
24.457 9.747 -8.19
25.701 8.692 -8.097
25.513 9.014 -5.561
24.183 9.944 -5.742
19.817 8.245 -4.146
22.111 9.383 -4.506
22.109 7.899 -5.186
21.475 9.85 -1.783
21.733 10.771 -0.664
21.307 10.205 0.708
22.108 10.167 1.637
21.002 12.086 -0.883
21.71 13.1 -1.77
22.96 13.675 -1.137
21.964 12.651 -2.629
22.731 10.939 -0.625
21.076 13.85 -1.966
20.768 10.043 -2.522
20.841 12.523 0.015
20.1 11.892 -1.296
23.97 13.383 -2.863
22.959 14.065 0.031
24.035 13.734 -1.909
24.912 14.122 -1.557
20.028 9.855 0.847
19.525 9.247 2.058
20.295 7.916 2.25
20.259 7.318 3.331
18.005 9.083 1.912
17.421 10.487 1.665
15.939 10.433 1.43
17.772 11.316 2.877
18.768 11.359 2.984
17.414 12.246 2.769
17.372 10.905 3.699
19.436 10.059 0.013
15.477 10.039 2.23
15.581 11.357 1.272
15.738 9.865 0.627
19.73 9.828 2.833
17.882 10.883 0.865
17.654 8.763 2.742
17.831 8.554 1.132
21.028 7.539 1.195
21.86 6.343 1.007
21.284 4.92 0.658
20.116 4.55 0.913
22.876 6.187 2.112
22.17 5.988 3.341
23.753 7.408 2.16
22.568 6.564 0.253
23.204 8.225 2.367
24.457 7.304 2.872
20.952 8.275 0.389
23.443 5.359 1.94
24.21 7.544 1.274
21.354 6.575 3.376
24.908 5.749 -0.497
25.885 4.852 -1.104
25.366 3.417 -1.124
25.864 2.569 -1.87
27.199 4.924 -0.343
27.837 6.301 -0.328
25.997 5.137 -2.062
24.184 6.623 0.008
27.846 4.281 -0.763
27.033 4.643 0.607
27.289 7.25 -0.905
28.978 6.418 0.34
29.443 7.3 0.391
29.375 5.618 0.796
24.369 3.149 -0.29
23.794 1.823 -0.239
22.912 1.61 -1.451
22.733 0.483 -1.905
24.057 3.942 0.293
24.524 1.136 -0.233
23.246 1.722 0.595
22.367 2.699 -1.984
21.494 2.608 -3.151
22.258 2.096 -4.364
21.755 1.255 -5.114
20.878 3.974 -3.458
22.608 3.587 -1.515
20.746 1.965 -2.946
20.116 4.14 -2.835
21.57 4.683 -3.337
20.549 3.984 -4.401
23.474 2.597 -4.558
24.279 2.18 -5.697
24.634 0.697 -5.603
24.696 0.008 -6.619
25.556 3.022 -5.787
26.302 2.915 -7.116
25.48 3.4 -8.307
24.628 4.296 -8.132
25.7 2.895 -9.426
27.106 3.478 -7.063
23.773 2.347 -6.552
26.519 1.969 -7.273
23.785 3.284 -3.853
26.169 2.716 -5.078
25.301 3.967 -5.666
24.859 0.2 -4.388
25.2 -1.211 -4.226
24.008 -2.084 -4.614
24.178 -3.164 -5.175
25.62 -1.509 -2.783
24.517 -1.462 -1.895
24.775 0.867 -3.612
25.954 -1.424 -4.851
26.294 -0.829 -2.5
26.026 -2.42 -2.75
23.988 -0.632 -2.064
22.803 -1.607 -4.314
21.587 -2.34 -4.654
21.403 -2.3 -6.173
21.112 -3.322 -6.804
20.356 -1.728 -3.944
19.069 -2.267 -4.544
20.405 -2.063 -2.455
21.708 -3.292 -4.385
19.279 -2.806 -5.361
19.472 -2.148 -2.108
20.371 -0.747 -4.112
18.604 -2.847 -3.875
18.471 -1.505 -4.794
22.803 -0.691 -3.829
20.893 -2.926 -2.329
20.882 -1.331 -1.97
21.585 -1.123 -6.765
21.46 -0.998 -8.214
22.455 -1.933 -8.908
22.128 -2.568 -9.909
21.716 0.448 -8.652
21.744 0.697 -10.166
20.394 0.334 -10.776
22.074 2.158 -10.446
22.969 2.378 -10.06
22.091 2.313 -11.434
21.379 2.743 -10.029
21.812 -0.341 -6.136
19.679 0.897 -10.362
20.419 0.498 -11.762
20.2 -0.632 -10.604
20.534 -1.27 -8.483
22.455 0.131 -10.574
22.599 0.726 -8.29
20.992 1.015 -8.273
23.668 -2.019 -8.365
24.705 -2.876 -8.933
24.287 -4.347 -8.982
24.632 -5.061 -9.923
26.007 -2.734 -8.132
26.758 -1.43 -8.396
27.991 -1.261 -7.52
27.045 -1.416 -9.354
24.872 -2.574 -9.884
26.137 -0.664 -8.224
23.809 -1.434 -7.519
26.614 -3.494 -8.369
25.789 -2.774 -7.157
27.406 -2.826 -6.383
28.802 -0.359 -7.739
28.131 -2.122 -6.515
28.937 -2.078 -5.896
23.552 -4.803 -7.972
23.106 -6.194 -7.947
22.121 -6.46 -9.087
22.151 -7.521 -9.71
22.457 -6.544 -6.589
21.894 -7.96 -6.62
23.506 -6.43 -5.483
23.907 -6.783 -8.088
22.635 -8.609 -6.788
23.419 -7.213 -4.869
21.689 -5.928 -6.455
21.463 -8.166 -5.742
21.215 -8.032 -7.35
23.333 -4.115 -7.237
24.416 -6.422 -5.895
23.356 -5.583 -4.976
21.25 -5.492 -9.357
20.291 -5.623 -10.449
21.037 -5.665 -11.784
20.714 -6.467 -12.665
19.311 -4.443 -10.441
18.14 -4.629 -9.515
17.032 -5.368 -9.921
18.144 -4.076 -8.241
15.939 -5.554 -9.07
17.06 -4.254 -7.378
15.954 -4.995 -7.793
15.178 -5.126 -7.183
19.843 -6.511 -10.343
15.151 -6.088 -9.385
17.083 -3.842 -6.456
21.311 -4.662 -8.742
18.932 -3.543 -7.933
17.012 -5.774 -10.83
18.961 -4.336 -11.359
19.808 -3.64 -10.149
22.034 -4.798 -11.937
22.806 -4.762 -13.174
23.603 -6.05 -13.362
23.766 -6.526 -14.486
23.724 -3.533 -13.187
22.94 -2.222 -13.128
23.845 -0.992 -13.126
24.476 -0.763 -14.421
25.347 0.21 -14.665
25.698 1.048 -13.699
25.861 0.354 -15.879
22.391 -2.203 -12.292
22.172 -4.661 -13.951
24.236 -1.381 -15.178
22.337 -2.162 -13.923
26.5 1.093 -16.073
25.606 -0.286 -16.609
22.206 -4.176 -11.132
24.55 -1.133 -12.433
23.286 -0.201 -12.885
26.347 1.795 -13.902
25.329 0.945 -12.78
24.244 -3.541 -14.026
24.312 -3.575 -12.395
24.088 -6.624 -12.262
24.837 -7.873 -12.341
23.901 -8.999 -12.779
24.263 -9.823 -13.627
25.468 -8.214 -10.985
26.184 -9.563 -10.964
26.894 -9.832 -9.647
27.264 -10.998 -9.402
27.082 -8.877 -8.865
25.512 -10.268 -11.089
25.581 -7.782 -13.003
26.863 -9.562 -11.673
23.893 -6.123 -11.382
24.748 -8.25 -10.32
26.134 -7.522 -10.783
22.699 -9.034 -12.207
21.724 -10.06 -12.568
21.408 -9.944 -14.057
21.269 -10.948 -14.758
20.45 -9.902 -11.741
22.523 -8.295 -11.508
22.121 -10.96 -12.395
19.822 -9.285 -12.214
20.017 -10.795 -11.625
20.68 -9.523 -10.846
21.312 -8.708 -14.535
21.024 -8.446 -15.939
22.154 -8.978 -16.821
21.911 -9.627 -17.839
20.84 -6.936 -16.146
20.525 -6.494 -17.562
20.112 -5.023 -17.546
19.951 -4.449 -18.941
21.267 -4.255 -19.601
20.172 -8.915 -16.193
19.396 -5.078 -19.49
19.48 -3.566 -18.878
21.333 -6.592 -18.126
19.774 -7.032 -17.917
21.436 -5.009 -20.236
21.263 -3.39 -20.104
21.988 -4.235 -18.908
20.813 -4.5 -17.064
19.241 -4.943 -17.064
21.458 -7.957 -13.831
21.688 -6.48 -15.853
20.092 -6.632 -15.546
23.394 -8.711 -16.424
24.545 -9.176 -17.186
24.583 -10.7 -17.205
25.057 -11.309 -18.169
25.828 -8.638 -16.568
23.466 -8.16 -15.551
24.465 -8.846 -18.131
25.699 -7.681 -16.31
26.058 -9.173 -15.756
26.572 -8.705 -17.232
24.086 -11.312 -16.133
24.081 -12.763 -16.022
22.795 -13.455 -16.473
22.428 -14.501 -15.936
24.429 -13.187 -14.588
25.885 -12.93 -14.2
26.873 -13.869 -14.884
26.447 -14.731 -15.682
28.09 -13.746 -14.621
26.116 -12.011 -14.468
24.869 -13.146 -16.559
25.974 -13.065 -13.229
23.712 -10.678 -15.403
24.269 -14.153 -14.514
23.863 -12.666 -13.977
22.103 -12.861 -17.447
20.909 -13.498 -17.988
19.504 -13.027 -17.661
18.572 -13.309 -18.421
22.473 -11.957 -17.764
21.008 -13.523 -19.045
20.967 -14.534 -17.764
19.323 -12.329 -16.549
17.991 -11.868 -16.175
17.508 -10.798 -17.149
18.214 -9.829 -17.411
18.008 -11.316 -14.752
20.172 -12.148 -15.994
17.355 -12.645 -16.212
18.824 -11.644 -14.279
18.018 -10.318 -14.783
17.193 -11.627 -14.266
16.307 -10.98 -17.693
15.761 -10.004 -18.628
15.185 -8.858 -17.811
13.993 -8.824 -17.498
14.681 -10.644 -19.498
14.241 -9.743 -20.631
13.495 -10.223 -21.511
14.638 -8.558 -20.643
15.817 -11.84 -17.404
16.522 -9.637 -19.153
13.897 -10.84 -18.921
15.051 -11.482 -19.88
16.064 -7.93 -17.454
15.714 -6.768 -16.655
15.985 -5.478 -17.419
17.023 -5.329 -18.064
16.555 -6.716 -15.358
16.293 -7.964 -14.516
16.237 -5.446 -14.574
17.302 -8.209 -13.396
14.72 -6.811 -16.51
16.815 -5.416 -13.762
16.42 -4.655 -15.154
17.512 -6.712 -15.617
15.379 -7.89 -14.11
16.299 -8.762 -15.124
17.291 -7.431 -12.773
17.039 -8.11 -17.801
17.048 -9.04 -12.907
15.275 -5.463 -14.31
18.21 -8.313 -13.794
15.033 -4.556 -17.35
15.18 -3.252 -17.973
15.09 -2.28 -16.808
14.109 -2.287 -16.063
14.049 -2.953 -18.971
14.107 -3.891 -20.05
14.207 -1.544 -19.528
16.076 -3.185 -18.369
14.702 -0.972 -18.869
14.721 -1.575 -20.388
14.186 -4.846 -16.818
13.153 -3.067 -18.497
13.304 -1.143 -19.698
14.533 -4.75 -19.745
16.125 -1.466 -16.636
16.168 -0.51 -15.537
15.932 0.908 -16.036
16.595 1.371 -16.965
17.534 -0.57 -14.818
17.805 -2 -14.347
17.548 0.395 -13.638
19.25 -2.281 -13.941
15.395 -0.736 -14.935
18.444 0.357 -13.201
17.369 1.317 -13.974
18.234 -0.322 -15.474
17.211 -2.196 -13.564
17.559 -2.629 -15.089
19.499 -1.675 -13.19
16.883 -1.568 -17.337
19.326 -3.232 -13.651
16.84 0.123 -12.99
19.845 -2.115 -14.723
14.974 1.585 -15.417
14.646 2.95 -15.785
14.93 3.883 -14.616
14.273 3.811 -13.576
13.162 3.082 -16.172
12.85 2.149 -17.345
12.842 4.533 -16.536
13.616 2.387 -18.677
15.28 3.208 -16.517
11.873 4.6 -16.761
13.055 5.113 -15.754
12.616 2.794 -15.397
13.027 1.196 -17.058
11.861 2.212 -17.551
14.587 2.288 -18.499
14.489 1.061 -14.66
13.31 1.711 -19.336
13.397 4.795 -17.321
13.41 3.304 -18.994
15.929 4.742 -14.786
16.286 5.714 -13.759
15.604 7.009 -14.203
16.099 7.715 -15.081
17.809 5.874 -13.699
18.559 4.576 -13.361
20.059 4.761 -13.552
18.247 4.163 -11.929
17.263 4.012 -11.831
18.736 3.318 -11.71
18.536 4.886 -11.302
16.424 4.662 -15.696
20.385 5.49 -12.95
20.532 3.908 -13.328
20.247 5.006 -14.503
15.897 5.435 -12.902
18.234 3.85 -13.964
18.021 6.529 -12.995
18.121 6.172 -14.586
14.455 7.301 -13.598
13.665 8.473 -13.962
13.55 9.551 -12.89
14.3 9.494 -11.895
12.262 8.023 -14.37
11.631 7.352 -13.294
12.695 10.447 -13.073
14.174 6.63 -12.854
14.104 8.9 -14.785
12.336 7.402 -15.141
11.727 8.822 -14.613
10.767 6.959 -13.607
