104.246 53.675 69.234
104.174 53.751 67.746
102.994 52.933 67.225
102.232 53.394 66.377
105.48 53.237 67.136
104.045 54.711 67.49
106.238 53.799 67.465
105.622 52.288 67.412
105.43 53.292 66.145
105.202 53.609 69.504
103.837 54.498 69.617
103.899 52.782 69.581
102.852 51.721 67.754
101.781 50.806 67.37
102.031 50.23 65.982
101.391 50.62 65.005
100.424 51.517 67.404
100.07 52.104 68.762
98.668 52.684 68.8
97.841 52.299 69.634
98.391 53.614 67.889
103.53 51.446 68.451
101.776 50.042 68.024
100.436 52.262 66.736
99.711 50.859 67.153
100.134 51.382 69.45
100.722 52.831 68.977
97.489 53.647 68.303
98.605 54.208 67.107
102.973 49.298 65.912
103.33 48.639 64.665
102.254 47.68 64.158
101.75 46.841 64.905
104.632 47.822 64.827
104.81 46.881 63.643
105.824 48.76 64.946
103.444 49.057 66.771
103.463 49.355 63.956
104.533 47.257 65.637
104.057 46.233 63.589
104.847 47.418 62.793
105.678 46.374 63.749
105.909 49.316 64.123
105.697 49.358 65.74
106.662 48.219 65.07
101.915 47.817 62.88
100.95 46.943 62.227
101.778 46.185 61.191
102.25 46.778 60.221
99.848 47.747 61.5
99.014 48.534 62.516
98.964 46.803 60.69
97.954 49.424 61.877
102.358 48.563 62.367
100.671 46.283 62.897
100.293 48.397 60.897
98.564 47.888 63.126
99.63 49.109 63.05
98.519 46.156 61.304
98.279 47.342 60.205
99.524 46.306 60.032
97.315 48.846 61.373
97.471 49.923 62.591
98.386 50.064 61.256
101.979 44.885 61.4
102.778 44.113 60.457
102.301 42.677 60.245
103.102 41.782 59.982
104.259 44.135 60.884
104.532 43.291 62.121
105.634 42.794 62.314
103.513 43.121 62.96
101.575 44.47 62.202
102.71 44.581 59.553
104.805 43.781 60.13
104.512 45.078 61.08
102.625 43.537 62.753
103.632 42.582 63.791
100.994 42.468 60.356
100.4 41.153 60.139
99.707 41.169 58.77
99.378 42.237 58.249
99.353 40.811 61.228
98.349 41.829 61.266
100.017 40.705 62.6
100.42 43.255 60.598
101.124 40.473 60.113
98.906 39.928 60.982
100.694 39.975 62.623
100.47 41.578 62.824
99.301 40.517 63.302
97.571 41.511 60.74
99.489 39.99 58.189
98.837 39.891 56.882
97.485 40.603 56.815
97.233 41.375 55.892
98.661 38.425 56.486
99.935 37.762 56.029
100.597 38.212 54.887
100.472 36.689 56.736
101.78 37.608 54.451
101.655 36.073 56.315
102.314 36.536 55.164
99.787 39.171 58.676
99.444 40.358 56.216
98.33 37.934 57.277
98.014 38.387 55.74
100.226 38.978 54.369
100.009 36.354 57.555
102.236 37.951 53.626
102.031 35.298 56.838
103.155 36.102 54.862
96.621 40.355 57.791
95.307 40.987 57.793
95.314 42.429 58.269
94.469 43.223 57.856
94.328 40.169 58.633
93.922 38.883 57.947
93.272 38.965 56.88
94.266 37.797 58.462
96.895 39.73 58.514
94.979 40.993 56.828
94.771 39.948 59.493
93.519 40.721 58.786
96.259 42.767 59.139
96.338 44.129 59.621
96.731 45.05 58.481
96.093 46.075 58.251
96.893 42.067 59.439
95.448 44.413 59.986
97.023 44.192 60.351
97.784 44.673 57.759
98.282 45.461 56.638
97.319 45.404 55.456
97.112 46.405 54.77
99.674 44.961 56.199
100.184 45.767 55.019
100.639 45.073 57.361
98.232 43.811 58.018
98.351 46.421 56.935
99.572 44.02 55.89
99.574 45.673 54.236
100.243 46.738 55.276
101.107 45.436 54.764
100.736 46.021 57.651
100.3 44.525 58.133
101.544 44.718 57.077
96.727 44.233 55.232
95.775 44.05 54.147
94.578 44.978 54.356
94.175 45.697 53.439
95.319 42.591 54.093
96.963 43.474 55.844
96.216 44.29 53.28
96.111 42.003 53.941
94.884 42.349 54.959
94.668 42.473 53.349
94.012 44.961 55.564
92.874 45.822 55.88
93.273 47.277 55.706
92.567 48.059 55.066
92.401 45.619 57.326
91.701 44.29 57.54
91.297 43.65 56.543
91.54 43.891 58.715
94.392 44.34 56.245
92.159 45.627 55.205
93.2 45.659 57.917
91.769 46.354 57.547
94.409 47.637 56.291
94.909 49.003 56.211
95.083 49.415 54.748
94.664 50.501 54.35
96.234 49.106 56.974
96.659 50.513 57.333
97.146 51.391 56.362
96.584 50.965 58.65
97.549 52.684 56.697
96.98 52.255 58.993
97.46 53.108 58.014
97.833 54.392 58.348
94.915 46.933 56.793
94.232 49.615 56.627
96.147 48.58 57.822
96.952 48.699 56.407
97.208 51.09 55.411
96.239 50.354 59.36
97.898 53.299 55.99
96.918 52.562 59.942
98.794 54.398 58.622
95.687 48.537 53.948
95.9 48.811 52.528
94.606 49.12 51.789
94.559 50.023 50.958
96.584 47.62 51.849
98.096 47.537 52.04
98.641 46.226 51.485
98.734 48.734 51.358
95.993 47.676 54.355
96.514 49.613 52.447
96.189 46.789 52.224
96.408 47.683 50.875
98.306 47.595 53.017
98.21 45.46 51.963
98.436 46.167 50.509
99.63 46.191 51.622
98.513 48.722 50.381
98.385 49.579 51.765
99.732 48.693 51.476
93.555 48.372 52.1
92.265 48.559 51.441
91.442 49.724 51.971
90.627 50.295 51.26
91.442 47.28 51.557
92.116 46.08 50.941
91.123 45.162 50.288
93.674 47.671 52.804
92.447 48.734 50.451
91.281 47.09 52.526
90.564 47.421 51.096
92.767 46.394 50.252
92.598 45.578 51.657
90.234 44.621 50.947
91.256 44.986 48.973
90.465 44.387 49.042
91.694 45.132 48.08
91.659 50.074 53.228
90.914 51.151 53.84
91.552 52.518 53.623
90.851 53.515 53.509
90.778 50.894 55.344
90.182 49.606 55.543
89.931 51.956 56.003
92.355 49.568 53.738
89.981 51.173 53.435
91.706 50.882 55.764
90.335 52.866 55.918
89.01 51.975 55.582
89.83 51.728 57.006
90.866 48.919 55.339
92.879 52.566 53.552
93.556 53.844 53.388
94.426 53.936 52.147
95.093 54.942 51.923
94.376 54.137 54.646
93.547 53.997 55.902
92.519 54.902 56.196
93.741 52.917 56.763
91.699 54.722 57.325
92.932 52.725 57.882
91.914 53.621 58.161
91.106 53.381 59.255
93.383 51.715 53.614
92.843 54.573 53.328
95.122 53.491 54.69
94.707 55.067 54.593
92.362 55.686 55.602
94.475 52.265 56.574
90.973 55.372 57.524
93.089 51.939 58.482
90.148 53.477 58.986
94.415 52.88 51.343
95.185 52.845 50.103
96.652 53.222 50.239
97.208 53.919 49.391
94.515 53.732 49.049
93.251 53.15 48.491
92.78 51.904 48.851
92.354 53.651 47.608
91.647 51.664 48.213
91.366 52.708 47.453
93.853 52.095 51.618
95.136 51.893 49.728
94.298 54.622 49.461
95.157 53.878 48.29
93.227 51.284 49.494
92.401 54.537 47.155
91.099 50.837 48.291
97.273 52.744 51.31
98.69 52.977 51.572
99.103 52.082 52.734
98.251 51.603 53.486
98.958 54.445 51.92
98.203 54.969 53.133
98.645 56.391 53.456
97.681 57.091 54.395
97.457 56.338 55.658
96.72 52.2 51.956
99.217 52.723 50.767
99.94 54.549 52.092
98.704 55.003 51.126
97.228 54.972 52.935
98.395 54.386 53.915
99.544 56.356 53.888
98.698 56.911 52.606
98.047 58.004 54.617
96.798 57.213 53.924
97.094 55.432 55.422
98.32 56.237 56.142
96.805 56.823 56.226
100.402 51.839 52.866
100.902 51.003 53.953
100.874 51.763 55.267
100.748 52.99 55.284
102.347 50.583 53.69
102.626 49.535 52.622
104.124 49.471 52.353
102.081 48.186 53.084
101.023 52.244 52.201
100.306 50.197 54.036
102.863 51.413 53.436
102.725 50.234 54.558
102.151 49.786 51.784
104.452 50.355 52.026
104.605 49.231 53.199
104.308 48.769 51.657
102.528 47.932 53.944
101.096 48.257 53.228
102.27 47.494 52.391
100.964 51.034 56.391
100.974 51.646 57.722
102.289 52.418 57.833
103.207 52.193 57.043
100.934 50.436 58.652
100.139 49.449 57.862
100.73 49.582 56.489
100.199 52.243 57.849
101.852 50.095 58.83
100.478 50.66 59.507
100.265 48.53 58.219
99.176 49.693 57.863
101.588 49.083 56.408
100.093 49.282 55.783
102.386 53.304 58.817
103.576 54.13 59.015
104.862 53.402 59.397
105.944 53.991 59.353
103.283 55.204 60.068
102.269 56.236 59.59
101.752 56.993 60.443
101.995 56.303 58.367
101.597 53.392 59.437
103.759 54.605 58.121
102.92 54.753 60.875
104.134 55.669 60.279
104.764 52.129 59.762
105.948 51.38 60.162
106.705 50.744 58.991
107.547 49.861 59.189
105.553 50.318 61.196
104.4 49.445 60.726
103.236 49.708 61.04
104.72 48.391 59.987
103.864 51.707 59.754
106.588 52.039 60.598
106.342 49.736 61.366
105.279 50.782 62.033
105.681 48.205 59.772
104.006 47.782 59.643
106.416 51.21 57.777
107.069 50.692 56.57
107.935 51.717 55.84
107.558 52.88 55.702
106.022 50.156 55.587
105.468 48.804 55.962
106.179 47.641 55.673
104.257 48.688 56.648
105.706 46.39 56.057
103.77 47.432 57.043
104.507 46.289 56.74
104.049 45.049 57.111
105.728 51.936 57.712
107.668 49.916 56.847
105.268 50.807 55.552
106.449 50.082 54.689
107.048 47.704 55.178
103.73 49.503 56.862
106.234 45.567 55.84
102.909 47.362 57.533
104.693 44.348 56.803
109.099 51.269 55.376
110.02 52.114 54.625
110.621 51.276 53.498
110.87 50.079 53.669
111.165 52.665 55.519
112.037 51.52 56.034
110.579 53.431 56.692
113.211 51.982 56.876
109.327 50.306 55.565
109.468 52.818 54.191
111.728 53.257 54.955
111.468 50.909 56.58
112.388 51.015 55.247
110.023 52.819 57.251
111.325 53.807 57.24
110.008 54.18 56.349
112.864 52.454 57.685
113.752 51.191 57.154
113.778 52.605 56.344
110.85 51.906 52.351
111.41 51.224 51.186
112.876 50.819 51.405
113.521 51.292 52.341
111.313 52.132 49.954
112.225 53.226 50.1
109.9 52.702 49.821
110.622 52.884 52.308
110.876 50.383 51.018
111.585 51.6 49.128
109.224 51.984 49.69
109.667 53.223 50.654
109.871 53.335 49.02
111.777 53.928 50.638
113.398 49.942 50.546
114.787 49.486 50.656
115.744 50.669 50.56
116.754 50.733 51.26
115.121 48.491 49.539
114.26 47.234 49.531
114.493 46.43 48.269
113.549 45.244 48.179
113.636 44.58 46.84
112.805 49.601 49.816
114.911 49.04 51.547
115.003 48.957 48.662
116.077 48.216 49.644
114.496 46.675 50.323
113.299 47.498 49.578
114.341 47.017 47.478
115.429 46.09 48.268
113.789 44.579 48.888
112.61 45.559 48.325
113.396 45.249 46.136
114.566 44.255 46.696
113.005 43.817 46.804
115.413 51.6 49.676
116.219 52.791 49.462
116.235 53.701 50.693
117.278 54.233 51.066
115.682 53.555 48.248
116.212 54.863 48.194
114.568 51.452 49.147
117.171 52.501 49.284
115.94 53.063 47.422
114.689 53.607 48.318
117.203 54.8 48.14
115.078 53.879 51.323
114.983 54.725 52.509
115.718 54.086 53.682
116.368 54.773 54.471
113.52 54.95 52.881
112.7 55.585 51.771
111.237 55.743 52.144
110.607 54.737 52.544
110.717 56.874 52.033
114.273 53.414 50.957
115.382 55.627 52.314
113.123 54.073 53.081
113.495 55.556 53.654
113.06 56.482 51.595
112.743 55.003 50.981
115.611 52.765 53.794
116.275 52.041 54.867
117.778 52.23 54.717
118.497 52.423 55.696
115.924 50.568 54.795
115.057 52.286 53.114
115.99 52.423 55.744
114.935 50.451 54.887
116.22 50.194 53.914
116.389 50.077 55.539
118.24 52.191 53.475
119.654 52.344 53.177
120.163 53.718 53.604
121.2 53.829 54.256
119.886 52.136 51.682
121.22 51.499 51.365
121.151 50.596 50.146
121.969 50.713 49.225
120.171 49.7 50.126
117.572 52.05 52.738
120.163 51.652 53.705
119.162 51.545 51.325
119.845 53.026 51.225
121.89 52.218 51.187
121.513 50.952 52.148
120.539 49.42 49.249
119.359 49.234 50.499
119.42 54.756 53.238
119.775 56.127 53.573
119.877 56.32 55.086
120.471 57.295 55.556
118.74 57.088 52.989
118.585 54.558 52.709
120.671 56.342 53.164
118.716 56.987 51.996
117.84 56.875 53.369
118.987 58.026 53.222
119.29 55.397 55.843
119.327 55.468 57.298
120.459 54.603 57.848
120.667 54.53 59.058
117.991 55.005 57.891
116.728 55.822 57.598
115.54 55.148 58.265
116.884 57.255 58.114
118.819 54.648 55.376
119.496 56.42 57.57
117.82 54.068 57.56
118.097 54.973 58.892
116.585 55.855 56.616
115.413 54.227 57.903
115.697 55.095 59.255
114.708 55.692 58.091
117.057 57.212 59.102
117.652 57.689 57.656
116.054 57.766 57.941
121.183 53.941 56.955
122.288 53.102 57.383
122.023 51.607 57.367
122.765 50.839 57.98
120.945 54.038 55.995
123.107 53.3 56.793
122.57 53.379 58.332
120.971 51.177 56.675
120.661 49.751 56.617
121.601 49.026 55.67
121.813 49.445 54.532
119.212 49.52 56.17
118.833 48.06 56.053
118.958 47.101 57.018
118.259 47.405 54.911
118.5 45.893 56.551
118.065 46.049 55.262
117.888 47.833 53.626
117.514 45.113 54.373
117.34 46.905 52.741
117.158 45.558 53.121
120.411 51.848 56.206
120.802 49.371 57.539
118.599 49.926 56.836
119.08 49.927 55.275
119.329 47.254 57.933
118.486 45.037 57.068
118.01 48.78 53.345
117.392 44.16 54.656
117.076 47.2 51.832
116.762 44.925 52.46
122.18 47.945 56.169
123.077 47.108 55.394
122.484 45.723 55.568
122.708 45.061 56.579
124.511 47.14 55.954
125.391 46.132 55.206
125.088 48.542 55.815
121.971 47.717 57.132
123.002 47.358 54.45
124.476 46.842 56.9
125.042 45.209 55.325
125.399 46.364 54.23
126.328 46.181 55.563
125.127 48.807 54.856
124.509 49.19 56.317
126.016 48.56 56.203
121.698 45.313 54.581
121.014 44.031 54.59
121.824 42.866 55.157
121.309 42.087 55.971
120.537 43.701 53.174
121.587 45.945 53.796
120.157 44.122 55.146
119.907 44.407 52.859
121.327 43.66 52.561
120.073 42.818 53.177
123.079 42.746 54.72
123.969 41.673 55.17
124.352 41.782 56.65
124.965 40.874 57.211
125.235 41.633 54.301
125.887 42.89 54.266
123.401 43.43 54.057
123.483 40.791 55.043
125.859 40.952 54.679
124.975 41.375 53.373
126.868 42.734 54.27
123.983 42.894 57.275
124.259 43.115 58.693
123.021 42.761 59.513
123.114 42.537 60.719
124.595 44.582 58.954
125.879 45.079 58.344
127.058 44.804 59.247
128.057 45.947 59.167
127.427 47.224 59.618
123.501 43.59 56.735
125.013 42.52 58.975
123.836 45.14 58.599
124.643 44.714 59.952
126.028 44.618 57.466
125.812 46.067 58.189
126.742 44.727 60.183
127.508 43.972 58.954
128.836 45.741 59.755
128.362 46.049 58.223
126.646 47.43 59.03
127.12 47.124 60.563
128.092 47.963 59.56
121.865 42.726 58.855
120.624 42.423 59.547
120.39 43.473 60.615
119.834 43.182 61.677
121.881 42.914 57.877
119.865 42.432 58.897
120.687 41.521 59.973
120.798 44.703 60.313
120.703 45.821 61.248
119.522 46.784 61.08
119.544 47.884 61.636
121.996 46.632 61.168
122.07 47.48 59.91
121.186 44.842 59.392
120.616 45.414 62.191
122.041 47.234 61.959
122.765 46.001 61.17
121.471 47.145 58.888
122.815 48.579 59.976
123.295 48.803 60.827
122.898 49.179 59.183
118.496 46.393 60.334
117.357 47.286 60.123
116.751 47.846 61.407
116.45 49.039 61.487
116.262 46.581 59.317
115.036 47.445 58.998
115.456 48.659 58.175
114.006 46.624 58.247
118.524 45.489 59.929
117.669 48.07 59.551
116.654 46.294 58.454
115.948 45.803 59.842
114.624 47.75 59.852
116.111 49.206 58.693
115.879 48.352 57.322
114.65 49.215 57.966
114.419 46.282 57.397
113.716 45.851 58.808
113.215 47.198 58.028
116.567 46.989 62.407
115.976 47.414 63.672
116.866 48.394 64.434
116.376 49.225 65.199
115.671 46.202 64.536
116.847 46.041 62.263
115.091 47.869 63.48
115.028 45.602 64.059
116.518 45.7 64.72
115.267 46.503 65.403
118.171 48.301 64.209
119.129 49.175 64.874
119.118 50.584 64.296
119.232 51.561 65.033
120.537 48.589 64.759
120.663 47.23 65.429
121.444 46.392 64.927
119.993 47.002 66.461
118.48 47.602 63.56
118.844 49.25 65.841
120.751 48.489 63.795
121.17 49.218 65.194
118.978 50.695 62.979
118.968 52.004 62.342
117.572 52.587 62.125
117.433 53.761 61.772
119.693 51.962 60.984
121.129 51.514 61.181
118.96 51.027 60.03
118.881 49.86 62.447
119.482 52.65 62.941
119.721 52.889 60.629
121.629 52.15 61.761
121.141 50.601 61.607
121.587 51.459 60.275
118.944 50.102 60.4
118.021 51.353 59.904
119.43 51.022 59.143
116.54 51.772 62.322
115.167 52.236 62.14
114.207 51.37 62.94
113.406 50.619 62.372
114.792 52.211 60.66
116.733 50.833 62.598
115.1 53.183 62.47
115.414 52.807 60.153
114.869 51.277 60.314
113.856 52.532 60.548
114.266 51.478 64.276
113.413 50.712 65.192
111.934 50.723 64.806
111.381 51.765 64.438
113.657 51.393 66.54
115.06 51.902 66.414
115.076 52.463 65.018
113.751 49.755 65.275
113.016 52.144 66.679
113.58 50.738 67.287
115.237 52.611 67.086
115.711 51.159 66.508
114.653 53.363 64.98
116.001 52.504 64.65
111.307 49.552 64.891
109.896 49.435 64.575
109.546 49.5 63.101
108.37 49.479 62.744
111.843 48.76 65.179
109.538 48.552 64.963
109.379 50.173 65.072
110.551 49.577 62.236
110.288 49.643 60.799
110.494 48.296 60.122
111.168 47.419 60.654
111.204 50.673 60.13
111.111 52.072 60.708
109.733 52.678 60.515
109.698 54.111 61.042
108.38 54.767 60.833
111.478 49.589 62.591
109.33 49.934 60.658
112.148 50.354 60.223
110.964 50.715 59.159
111.313 52.035 61.69
111.789 52.659 60.258
109.518 52.694 59.548
109.068 52.143 61.018
109.909 54.097 62.026
110.412 54.644 60.573
108.183 54.768 59.848
107.675 54.257 61.315
108.413 55.7 61.169
109.896 48.147 58.946
110.018 46.941 58.13
110.142 47.425 56.688
109.655 48.51 56.349
108.764 46.064 58.235
108.517 45.613 59.553
109.332 48.923 58.62
110.859 46.485 58.373
107.975 46.597 57.92
108.881 45.268 57.636
109.229 45.972 60.146
110.798 46.636 55.847
110.932 46.988 54.443
109.561 46.81 53.794
108.905 45.786 54.001
111.937 46.067 53.722
113.341 46.275 54.298
111.928 46.36 52.226
113.898 47.674 54.087
111.195 45.796 56.21
111.135 47.959 54.412
111.669 45.128 53.894
113.313 46.084 55.278
113.958 45.619 53.864
112.21 47.304 52.069
112.559 45.735 51.771
111.007 46.223 51.865
113.301 48.327 54.553
114.817 47.724 54.468
113.925 47.88 53.118
109.129 47.806 53.025
107.841 47.722 52.362
107.566 48.901 51.449
108.078 49.999 51.673
109.716 48.603 52.923
107.797 46.863 51.82
107.105 47.663 53.062
106.776 48.673 50.404
106.435 49.753 49.493
107.136 49.735 48.153
106.814 50.526 47.268
106.432 47.751 50.27
105.417 49.748 49.338
106.625 50.652 49.958
108.096 48.836 47.988
108.819 48.763 46.731
108.012 48.052 45.664
107.197 47.177 45.961
110.152 48.04 46.92
111.177 48.885 47.654
111.613 49.913 47.095
111.543 48.518 48.787
108.301 48.224 48.742
108.963 49.712 46.413
109.983 47.215 47.447
110.51 47.813 46.022
108.251 48.447 44.42
107.595 47.859 43.265
107.94 46.375 43.172
109.098 45.983 43.365
108.061 48.567 41.968
107.477 49.979 41.932
107.662 47.759 40.736
108.073 50.861 40.866
108.924 49.193 44.301
106.61 47.911 43.439
109.046 48.639 42.001
106.49 49.908 41.784
107.632 50.403 42.826
106.666 47.68 40.708
107.991 48.23 39.922
108.067 46.853 40.786
107.886 50.462 39.967
107.667 51.773 40.917
109.063 50.927 41.002
106.929 45.558 42.887
107.111 44.114 42.737
106.979 43.829 41.255
105.922 44.028 40.672
106.038 43.348 43.505
106.138 41.852 43.36
107.251 41.167 43.834
105.117 41.129 42.751
107.344 39.781 43.702
105.2 39.747 42.614
106.313 39.07 43.09
106.02 45.971 42.776
108.046 43.914 42.99
106.134 43.567 44.464
105.156 43.628 43.158
107.992 41.663 44.274
104.309 41.611 42.407
108.157 39.303 44.049
104.446 39.243 42.165
106.381 38.079 42.999
108.055 43.366 40.641
108.034 43.109 39.216
107.399 41.805 38.755
107.346 41.547 37.556
109.437 43.25 38.651
109.818 44.604 38.745
108.872 43.202 41.187
107.514 43.88 38.765
110.057 42.699 39.184
109.431 42.978 37.702
109.188 45.148 38.201
106.941 40.984 39.7
106.243 39.747 39.362
106.991 39.06 38.216
106.443 38.855 37.134
104.821 40.15 38.952
103.875 38.985 38.844
107.093 41.245 40.653
106.306 39.143 40.153
104.471 40.79 39.637
104.873 40.609 38.064
104.037 37.964 39.515
102.847 39.147 38.013
102.74 39.998 37.502
102.177 38.41 37.9
108.248 38.709 38.476
109.137 38.114 37.479
108.841 36.69 37.003
109.311 36.284 35.941
110.581 38.206 37.987
111.019 39.641 38.304
112.25 39.695 39.205
112.404 41.016 39.807
112.901 42.08 39.181
113.317 41.989 37.927
112.938 43.255 39.797
108.581 38.873 39.418
109.144 38.732 36.646
110.655 37.674 38.819
111.183 37.853 37.285
111.237 40.114 37.451
110.273 40.116 38.769
112.137 39.016 39.92
113.046 39.49 38.648
112.113 41.132 40.767
113.248 41.131 37.424
113.709 42.797 37.471
112.572 43.338 40.727
113.326 44.052 39.339
108.084 35.928 37.781
107.745 34.566 37.389
106.351 34.598 36.778
105.859 33.589 36.28
107.74 33.638 38.608
109.098 33.372 39.236
109.911 32.35 38.468
109.348 31.702 37.57
111.108 32.18 38.767
107.756 36.315 38.639
108.397 34.233 36.718
107.168 34.057 39.299
107.368 32.767 38.319
109.606 34.214 39.241
108.956 33.019 40.143
105.721 35.77 36.845
104.385 35.945 36.308
103.326 35.2 37.099
102.252 34.906 36.581
106.207 36.528 37.283
104.155 36.935 36.294
104.365 35.626 35.343
103.61 34.909 38.364
102.656 34.174 39.192
101.431 34.974 39.606
100.368 34.398 39.822
103.361 33.603 40.427
104.436 32.574 40.072
105.142 32.04 41.307
106.31 31.14 40.943
107.248 30.976 42.093
104.487 35.205 38.728
102.345 33.35 38.672
103.795 34.35 40.913
102.682 33.159 40.997
104.004 31.811 39.588
105.111 33.006 39.472
105.487 32.809 41.838
104.492 31.514 41.848
105.959 30.241 40.676
106.806 31.543 40.172
107.595 31.877 42.356
106.761 30.566 42.859
108.005 30.391 41.826
101.57 36.292 39.733
100.429 37.123 40.098
99.763 37.575 38.805
100.426 37.715 37.773
100.859 38.353 40.91
101.417 38.151 42.321
101.478 39.49 43.028
100.535 37.197 43.103
102.467 36.685 39.573
99.782 36.573 40.612
101.567 38.835 40.377
100.058 38.958 40.991
102.331 37.765 42.254
102.08 40.117 42.537
100.557 39.888 43.076
101.831 39.356 43.966
99.606 37.58 43.148
100.506 36.312 42.645
100.898 37.087 44.029
98.441 37.797 38.838
97.729 38.231 37.634
98.167 39.604 37.137
98.097 40.599 37.868
96.266 38.206 38.074
96.35 38.546 39.524
97.52 37.694 39.981
97.824 37.538 36.896
95.735 38.887 37.576
95.871 37.301 37.939
96.546 39.508 39.653
95.521 38.285 39.999
97.934 38.065 40.804
97.242 36.75 40.128
98.622 39.643 35.888
99.052 40.888 35.285
97.927 41.521 34.488
96.974 40.846 34.09
98.656 38.781 35.382
99.351 41.528 36.005
99.836 40.716 34.675
98.034 42.826 34.26
97.027 43.563 33.507
97.571 44.934 33.125
98.361 45.524 33.863
95.764 43.726 34.351
94.661 44.525 33.684
93.399 44.528 34.533
92.233 45.148 33.779
90.954 45.023 34.535
98.842 43.294 34.629
96.81 43.057 32.669
95.41 42.814 34.561
96.017 44.187 35.203
94.968 45.468 33.559
94.451 44.119 32.796
93.165 43.591 34.765
93.564 45.06 35.355
92.427 46.12 33.621
92.136 44.688 32.892
90.769 44.05 34.69
91.04 45.492 35.409
90.214 45.424 34.009
97.152 45.438 31.97
97.6 46.75 31.512
97.275 47.819 32.552
96.147 47.9 33.034
96.918 47.106 30.186
97.308 46.22 29.147
96.521 44.891 31.424
98.598 46.719 31.403
95.931 47.048 30.308
97.176 48.035 29.933
97.16 45.289 29.459
98.27 48.627 32.907
98.05 49.687 33.877
98.184 49.296 35.335
98.215 50.165 36.21
99.161 48.481 32.49
98.702 50.46 33.678
97.113 50.088 33.724
98.265 47.997 35.609
98.389 47.521 36.982
99.834 47.315 37.418
100.611 46.641 36.742
97.63 46.2 37.153
97.937 45.454 38.455
97.301 44.058 38.465
95.841 44.118 38.528
95.033 43.151 38.096
95.537 42.043 37.564
93.716 43.295 38.193
98.238 47.358 34.843
97.96 48.203 37.602
96.653 46.396 37.137
97.87 45.6 36.395
98.92 45.345 38.55
97.568 45.965 39.223
97.578 43.592 37.63
97.648 43.573 39.262
95.42 44.942 38.922
96.522 41.908 37.498
94.915 41.328 37.224
93.338 44.125 38.61
93.106 42.583 37.855
100.198 47.898 38.553
101.54 47.709 39.063
101.46 47.084 40.452
100.572 47.384 41.248
102.352 49.03 39.086
101.647 50.033 39.809
102.59 49.526 37.669
99.531 48.456 39.029
102.03 47.076 38.463
103.242 48.853 39.559
103.128 48.882 37.133
101.703 49.672 37.205
103.09 50.423 37.71
100.693 49.766 39.859
102.38 46.172 40.723
102.396 45.496 41.998
103.473 46.038 42.914
104.507 46.527 42.455
102.635 44.001 41.803
101.503 43.282 41.183
101.309 43.04 39.853
100.382 42.709 41.866
100.134 42.348 39.664
99.544 42.134 40.883
100.006 42.622 43.212
98.347 41.482 41.207
98.811 41.967 43.534
98 41.41 42.533
103.057 45.97 40.017
101.503 45.659 42.448
103.431 43.88 41.214
102.807 43.587 42.695
101.926 43.322 39.121
99.77 42.05 38.784
100.568 43.012 43.932
97.776 41.088 40.482
98.542 41.901 44.486
97.152 40.952 42.802
103.211 45.94 44.213
104.157 46.361 45.237
104.152 45.271 46.307
103.215 44.468 46.381
103.754 47.711 45.842
104.08 48.912 44.952
103.664 50.231 45.598
103.752 51.342 44.654
104.874 51.972 44.313
106.047 51.624 44.841
104.824 52.951 43.42
102.315 45.556 44.471
105.063 46.415 44.843
102.772 47.703 45.997
104.24 47.826 46.701
105.063 48.943 44.787
103.592 48.823 44.087
102.726 50.137 45.911
104.272 50.4 46.366
102.891 51.66 44.224
106.1 50.867 45.489
106.876 52.123 44.585
103.953 53.199 42.993
105.658 53.445 43.169
105.198 45.232 47.123
105.297 44.228 48.172
105.74 44.866 49.482
106.229 45.991 49.499
106.295 43.132 47.768
107.715 43.631 47.522
108.731 42.503 47.468
108.759 41.696 48.421
109.503 42.422 46.487
105.915 45.915 46.993
104.405 43.782 48.302
106.332 42.478 48.503
105.972 42.728 46.931
107.733 44.089 46.654
107.967 44.222 48.264
105.554 44.14 50.578
105.948 44.617 51.892
106.17 43.416 52.805
105.407 42.45 52.771
104.868 45.536 52.476
105.125 43.238 50.465
106.808 45.121 51.814
104.739 46.314 51.863
104.014 45.027 52.558
105.152 45.859 53.369
107.225 43.484 53.612
107.571 42.425 54.554
106.489 42.289 55.614
105.939 43.287 56.086
108.893 42.752 55.237
110.091 42.526 54.341
109.94 42.575 53.1
111.195 42.313 54.892
107.795 44.316 53.549
107.591 41.563 54.039
108.872 43.71 55.508
108.979 42.17 56.039
106.196 41.051 55.993
105.186 40.767 57.009
105.829 39.968 58.147
106.698 39.131 57.911
104.003 39.959 56.394
103.211 40.851 55.437
103.097 39.41 57.495
102.503 42.036 56.122
106.699 40.302 55.551
104.92 41.647 57.397
104.391 39.211 55.876
103.831 41.215 54.747
102.515 40.296 54.985
102.718 40.174 58.014
102.364 38.884 57.074
103.624 38.825 58.099
103.204 42.608 56.541
102.002 42.549 55.436
101.889 41.706 56.808
105.404 40.249 59.376
105.916 39.581 60.578
107.362 39.887 60.931
107.971 39.148 61.71
105.769 38.054 60.488
104.335 37.616 60.345
104.692 40.963 59.461
105.342 39.906 61.36
106.285 37.74 59.695
106.148 37.658 61.321
103.433 38.192 60.96
104.11 36.581 59.538
104.876 36.137 59.072
103.179 36.248 59.399
107.925 40.95 60.37
109.305 41.293 60.692
109.358 42.186 61.929
108.533 43.089 62.096
109.997 42.002 59.515
111.39 42.5 59.855
111.583 43.747 60.461
112.511 41.705 59.625
112.854 44.184 60.828
113.786 42.131 59.988
113.951 43.372 60.589
115.216 43.8 60.948
107.39 41.491 59.739
109.803 40.445 60.898
110.071 41.357 58.765
109.443 42.783 59.254
110.793 44.337 60.634
112.399 40.812 59.192
112.971 45.077 61.262
114.578 41.547 59.817
115.883 43.097 60.707
110.329 41.918 62.796
110.511 42.7 64.011
111.95 43.207 64.065
112.181 44.413 64.164
110.218 41.86 65.27
111.138 40.764 65.336
108.787 41.316 65.229
110.939 41.15 62.583
109.9 43.491 63.979
110.358 42.444 66.094
108.116 42.051 65.221
108.666 40.752 64.402
108.63 40.732 66.049
112.023 41.124 65.601
112.91 42.288 63.977
114.324 42.65 64.006
115.212 41.548 63.423
114.756 40.431 63.174
114.763 42.935 65.443
114.732 41.748 66.216
112.627 41.332 63.89
114.448 43.476 63.438
115.69 43.291 65.431
114.141 43.599 65.842
114.926 41.985 67.161
116.485 41.875 63.214
117.419 40.907 62.669
117.368 40.834 61.153
117.107 41.831 60.483
116.77 42.801 63.443
118.362 41.148 62.959
117.216 39.989 63.053
117.626 39.651 60.609
117.596 39.45 59.165
116.156 39.293 58.685
115.294 38.813 59.424
118.412 38.215 58.797
119.872 38.334 59.14
120.72 39.118 58.367
120.399 37.668 60.247
122.074 39.239 58.686
121.749 37.782 60.574
122.589 38.569 59.792
117.844 38.894 61.228
117.951 40.288 58.744
118.044 37.446 59.296
118.339 38.081 57.821
120.364 39.604 57.574
119.8 37.103 60.813
122.669 39.81 58.112
122.112 37.29 61.379
123.556 38.655 60.02
115.899 39.696 57.445
114.553 39.604 56.89
114.054 38.168 56.743
114.828 37.251 56.444
114.489 40.345 55.552
114.704 41.85 55.718
114.071 42.651 54.59
114.61 42.247 53.307
113.876 41.956 52.242
112.553 42.029 52.289
114.475 41.557 51.14
116.654 40.063 56.908
113.914 40.104 57.503
115.203 39.997 54.967
113.595 40.206 55.159
114.296 42.147 56.58
115.684 42.043 55.726
113.092 42.486 54.609
114.268 43.611 54.749
115.615 42.181 53.215
112.087 42.324 53.121
112.011 41.786 51.478
115.474 41.491 51.094
113.932 41.314 50.329
112.758 37.976 56.968
112.157 36.646 56.878
111.666 36.324 55.467
112.059 36.971 54.496
110.994 36.515 57.871
109.842 37.46 57.556
112.204 38.774 57.202
112.882 35.977 57.097
110.655 35.58 57.836
111.335 36.724 58.783
109.595 37.794 56.394
109.118 37.88 58.591
109.352 37.574 59.516
108.347 38.496 58.447
110.786 35.336 55.357
110.271 34.928 54.054
108.801 35.241 53.816
108.191 34.643 52.925
110.47 33.43 53.879
109.697 32.738 54.839
110.488 34.881 56.193
110.813 35.419 53.338
110.172 33.168 52.972
111.427 33.213 54.016
108.909 32.341 54.382
108.236 36.153 54.608
106.831 36.526 54.485
106.669 37.864 53.776
107.354 38.832 54.107
106.177 36.627 55.861
106.247 35.331 56.638
106.322 34.26 56.003
106.212 35.39 57.885
108.821 36.581 55.304
106.387 35.829 53.906
106.65 37.335 56.375
105.223 36.872 55.731
105.737 37.923 52.825
105.505 39.15 52.067
104.037 39.339 51.736
103.308 38.377 51.529
106.291 39.131 50.743
107.777 38.82 50.866
108.587 40.021 51.322
110.014 39.711 51.358
110.643 39.142 52.384
109.978 38.819 53.486
111.939 38.877 52.297
105.203 37.1 52.648
105.817 39.936 52.622
105.877 38.439 50.15
106.197 40.031 50.317
107.907 38.084 51.532
108.128 38.527 49.976
108.428 40.764 50.683
108.282 40.272 52.233
110.566 39.946 50.544
108.996 38.978 53.557
110.47 38.407 54.261
112.435 39.088 51.452
112.422 38.467 53.069
103.615 40.597 51.687
102.249 40.936 51.33
102.416 41.623 49.962
103.341 42.416 49.766
101.612 41.888 52.4
100.092 41.96 52.223
102.227 43.279 52.315
99.653 42.5 50.905
104.283 41.315 51.909
101.784 40.095 51.155
101.806 41.5 53.292
99.722 41.036 52.347
99.726 42.539 52.957
102.046 43.66 51.409
101.818 43.856 53.017
103.209 43.219 52.462
99.983 41.901 50.17
98.653 42.545 50.866
100.036 43.428 50.779
101.562 41.273 49.006
101.634 41.854 47.67
100.324 42.564 47.355
99.24 41.984 47.501
101.871 40.77 46.616
103.021 39.769 46.741
104.357 40.486 46.75
102.832 38.94 47.997
100.864 40.593 49.234
102.373 42.528 47.652
101.012 40.223 46.546
101.986 41.24 45.719
102.986 39.137 45.966
104.468 41 45.898
104.395 41.119 47.525
105.098 39.812 46.833
102.818 39.548 48.795
101.967 38.442 47.946
103.59 38.289 48.086
100.421 43.816 46.919
99.228 44.583 46.59
99.403 45.355 45.291
100.464 45.926 45.021
98.86 45.54 47.728
99.954 46.509 48.104
101.058 46.087 48.845
99.896 47.848 47.704
102.082 46.974 49.185
100.918 48.747 48.037
102.004 48.3 48.777
103.013 49.166 49.108
101.331 44.209 46.826
98.46 43.939 46.471
98.059 46.065 47.446
98.636 44.993 48.534
101.121 45.134 49.141
99.118 48.17 47.174
102.865 46.655 49.717
100.862 49.696 47.744
103.015 49.939 48.472
98.346 45.352 44.488
98.34 46.017 43.194
97.707 47.409 43.283
97.116 47.778 44.297
97.558 45.164 42.198
96.207 45.067 42.61
97.526 44.86 44.813
99.295 46.135 42.895
97.596 45.594 41.307
97.955 44.257 42.171
95.633 45.453 41.897
97.826 48.173 42.206
97.278 49.522 42.171
95.756 49.529 42.238
95.156 50.519 42.664
97.773 50.255 40.923
98.018 49.351 39.862
98.306 47.792 41.416
97.625 50.022 42.979
97.078 50.91 40.639
98.619 50.731 41.146
97.561 48.493 40.069
95.133 48.427 41.829
93.683 48.33 41.884
93.259 47.47 43.067
92.198 46.846 43.065
93.101 47.807 40.562
93.771 46.545 40.072
94.86 46.195 40.571
93.203 45.906 39.161
95.69 47.677 41.486
93.326 49.254 42.05
92.133 47.624 40.709
93.214 48.521 39.878
94.132 47.455 44.073
93.946 46.778 45.354
93.643 45.287 45.477
92.823 44.867 46.296
92.95 47.596 46.177
93.321 49.034 46.092
92.758 49.975 45.276
94.486 49.648 46.661
93.507 51.127 45.287
94.574 50.955 46.128
95.47 49.218 47.562
95.608 51.837 46.466
96.499 50.093 47.898
96.559 51.389 47.349
95.006 47.974 43.905
94.826 46.952 45.914
92.06 47.492 45.794
93.01 47.324 47.111
91.92 49.846 44.745
93.307 51.956 44.767
95.439 48.306 47.959
95.637 52.757 46.068
97.2 49.795 48.535
97.314 51.986 47.616
94.308 44.48 44.665
94.16 43.042 44.783
95.255 42.74 45.809
96.365 43.273 45.697
94.464 42.354 43.45
93.345 42.32 42.402
92.602 43.633 42.383
93.942 42.008 41.04
94.903 44.887 43.981
93.303 42.837 45.182
95.244 42.825 43.034
94.715 41.406 43.645
92.715 41.577 42.63
92.193 43.809 43.28
93.234 44.379 42.16
91.872 43.594 41.685
94.613 42.716 40.806
94.395 41.118 41.067
93.215 41.994 40.351
94.95 41.923 46.814
95.933 41.599 47.847
96.252 40.104 47.9
95.353 39.264 47.987
95.438 42.018 49.253
94.845 43.434 49.23
96.582 41.908 50.252
95.85 44.556 49.166
94.031 41.539 46.841
96.787 42.065 47.58
94.718 41.387 49.523
94.228 43.5 48.438
94.286 43.547 50.059
97.318 42.527 49.99
96.242 42.147 51.16
96.925 40.968 50.263
96.379 44.456 48.319
95.376 45.432 49.164
96.46 44.504 49.95
97.541 39.789 47.858
98.031 38.415 47.913
99.105 38.314 48.991
99.605 39.328 49.483
98.675 38.005 46.585
97.719 37.648 45.474
97.486 36.313 45.136
97.094 38.64 44.722
96.66 35.972 44.067
96.263 38.314 43.652
96.052 36.979 43.329
95.237 36.656 42.274
98.196 40.558 47.784
97.272 37.819 48.172
99.251 38.767 46.271
99.264 37.209 46.759
97.92 35.586 45.67
97.242 39.599 44.952
96.507 35.014 43.836
95.823 39.035 43.121
94.293 36.906 42.491
99.475 37.086 49.334
100.507 36.871 50.333
101.345 35.661 49.984
100.912 34.786 49.229
99.891 36.648 51.712
99.174 35.315 51.865
98.894 35.016 53.326
98.188 33.673 53.5
97.837 33.397 54.918
99.021 36.32 48.884
101.104 37.683 50.366
100.621 36.69 52.392
99.232 37.38 51.882
98.308 35.352 51.369
99.748 34.591 51.489
99.756 34.984 53.822
98.308 35.728 53.698
97.349 33.676 52.945
98.793 32.945 53.16
98.683 33.401 55.459
97.222 34.105 55.252
97.399 32.508 54.988
102.558 35.634 50.522
103.461 34.511 50.344
104.202 34.332 51.657
104.571 35.314 52.304
104.495 34.729 49.215
105.306 33.551 49.097
105.398 35.937 49.508
102.835 36.434 51.068
102.927 33.693 50.169
103.998 34.863 48.339
104.862 36.774 49.571
105.882 35.788 50.377
106.077 36.032 48.765
104.819 32.902 48.529
104.391 33.08 52.061
105.108 32.782 53.293
106.278 31.863 52.979
106.977 31.4 53.88
104.203 32.089 54.326
103.633 30.907 53.749
103.092 33.028 54.779
104.023 32.348 51.489
105.468 33.636 53.669
104.77 31.81 55.127
103.453 33.84 55.229
102.544 33.316 53.98
102.481 32.529 55.433
102.653 30.939 53.894
106.492 31.608 51.693
107.58 30.74 51.275
108.527 31.418 50.295
109.004 30.796 49.343
107.028 29.454 50.661
106.165 29.711 49.449
106.333 30.766 48.805
105.327 28.843 49.13
105.882 32.031 51.027
108.122 30.517 52.103
107.8 28.887 50.393
106.484 28.993 51.353
108.799 32.695 50.543
109.699 33.493 49.714
109.33 33.526 48.227
110.169 33.259 47.362
111.145 33.003 49.874
112.176 34.08 49.684
108.349 33.11 51.348
109.685 34.452 50.06
111.259 32.617 50.795
111.319 32.278 49.199
113.422 33.834 49.146
112.154 35.402 49.984
114.121 34.955 49.12
113.375 35.922 49.623
111.396 35.904 50.391
115.052 35.054 48.781
113.744 32.942 48.825
108.073 33.856 47.939
107.576 33.978 46.566
107.404 32.695 45.746
107.212 32.771 44.542
108.452 34.946 45.754
108.88 36.202 46.485
110.132 36.276 47.102
108.044 37.324 46.55
110.546 37.432 47.764
108.45 38.488 47.213
109.702 38.53 47.814
110.126 39.662 48.461
107.454 34.024 48.718
106.654 34.445 46.608
109.277 34.453 45.47
107.937 35.22 44.939
110.745 35.485 47.07
107.149 37.295 46.118
111.446 37.466 48.197
107.845 39.277 47.252
109.464 40.399 48.317
107.48 31.525 46.371
107.28 30.281 45.626
105.801 30.13 45.255
105.461 29.806 44.114
107.724 29.08 46.458
109.211 28.844 46.443
109.626 27.73 47.381
109.902 26.605 46.95
109.684 28.039 48.671
107.674 31.519 47.342
107.803 30.341 44.775
107.435 29.226 47.407
107.269 28.259 46.101
109.494 28.598 45.516
109.678 29.683 46.722
109.967 27.097 48.813
109.595 28.656 49.462
104.925 30.363 46.226
103.49 30.267 45.992
102.827 31.485 46.624
103.383 32.098 47.542
102.884 28.978 46.615
103.064 28.997 48.035
103.557 27.719 46.032
105.284 30.607 47.127
103.323 30.291 45.011
101.884 28.964 46.417
103.41 27.661 45.051
104.544 27.755 46.22
103.169 26.9 46.475
104.029 28.87 48.222
101.649 31.838 46.122
100.914 32.986 46.631
99.485 32.585 46.95
98.951 31.648 46.364
100.89 34.107 45.586
102.254 34.611 45.195
102.777 35.765 45.773
103.015 33.934 44.239
104.031 36.242 45.406
104.277 34.404 43.863
104.785 35.562 44.448
101.281 31.282 45.374
101.344 33.249 47.499
100.451 33.753 44.774
100.382 34.865 45.968
102.25 36.257 46.459
102.654 33.104 43.819
104.39 37.079 45.833
104.811 33.902 43.17
105.682 35.907 44.187
98.874 33.299 47.887
97.488 33.058 48.266
96.772 34.399 48.229
97.23 35.372 48.824
97.375 32.467 49.68
97.936 31.15 49.688
95.92 32.39 50.113
99.408 34.024 48.335
97.072 32.459 47.593
97.913 33.046 50.324
95.496 33.291 50.157
95.4 31.819 49.461
95.872 31.954 51.042
98.922 31.238 49.742
95.66 34.453 47.509
94.887 35.683 47.403
94.15 35.823 48.718
93.595 34.849 49.219
93.901 35.573 46.237
92.979 36.777 46.006
92.211 36.599 44.681
91.107 37.623 44.476
91.636 39.004 44.322
95.368 33.62 47.039
95.505 36.447 47.294
94.429 35.423 45.393
93.32 34.765 46.393
92.325 36.832 46.746
93.525 37.6 45.948
92.867 36.676 43.928
91.806 35.683 44.674
90.584 37.376 43.652
90.486 37.594 45.267
92.156 39.238 45.148
92.234 39.044 43.527
90.882 39.641 44.21
94.151 37.02 49.294
93.454 37.205 50.557
92.425 38.324 50.521
91.66 38.516 51.471
94.45 37.412 51.718
95.389 38.59 51.431
95.262 36.141 51.911
96.347 38.895 52.586
94.628 37.759 48.848
92.941 36.346 50.727
93.926 37.628 52.536
95.925 38.38 50.621
94.836 39.399 51.26
95.792 35.945 51.09
95.877 36.264 52.691
94.641 35.374 52.097
96.927 38.098 52.735
96.904 39.684 52.346
95.83 39.089 53.404
92.397 39.058 49.416
91.416 40.12 49.245
91.105 40.227 47.761
92.04 40.034 46.951
91.958 41.458 49.767
92.252 41.489 51.272
90.993 41.347 52.134
91.301 41.563 53.548
91.937 40.686 54.32
92.194 40.967 55.597
92.295 39.511 53.824
89.936 40.513 47.424
93.07 38.859 48.707
90.583 39.876 49.731
92.808 41.66 49.287
91.283 42.165 49.575
92.87 40.737 51.503
92.687 42.359 51.505
90.338 42.025 51.83
90.64 40.43 52.008
91.012 42.433 53.964
91.895 41.83 55.996
92.692 40.302 56.16
92.068 39.279 52.875
92.789 38.854 54.392
