49.455 42.3 9.091
48.579 41.927 10.242
48.184 40.452 10.151
48.913 39.598 10.664
47.365 42.85 10.298
46.518 42.581 11.512
47.46 41.446 12.594
47.649 40.047 11.485
46.749 39.671 11.265
48.1 40.347 10.644
48.205 39.343 11.928
49.984 41.5 8.817
48.881 42.607 8.336
46.33 43.436 11.995
45.654 42.155 11.241
50.067 43.034 9.377
49.11 42.061 11.078
46.811 42.707 9.477
47.679 43.799 10.325
47.059 40.159 9.514
46.637 38.769 9.336
46.883 38.337 7.891
46.653 39.056 6.912
45.183 38.563 9.756
44.984 37.443 10.77
44.244 36.255 10.153
43.486 35.488 11.22
44.329 34.73 12.18
47.178 38.184 9.943
42.905 36.144 11.741
42.846 34.839 10.762
45.877 37.131 11.093
44.45 37.788 11.54
44.978 35.353 12.617
43.746 34.312 12.877
44.83 34.015 11.691
44.907 35.651 9.734
43.599 36.597 9.484
46.522 40.969 9.165
44.649 38.345 8.941
44.85 39.412 10.16
47.385 37.128 7.738
47.655 36.581 6.41
46.792 35.35 6.185
46.9 34.388 6.948
49.13 36.243 6.239
49.435 35.45 4.961
49.756 36.428 3.832
50.349 35.737 2.628
51.294 34.659 3.079
47.423 37.271 5.722
49.623 35.322 2.09
50.853 36.396 2.08
50.22 34.872 5.121
48.64 34.92 4.713
51.527 34.812 4.037
50.849 33.773 2.974
52.118 34.695 2.519
50.409 37.102 4.173
48.911 36.885 3.56
47.569 36.608 8.616
49.423 35.695 7.017
49.649 37.092 6.204
46.107 35.309 5.047
45.347 34.107 4.699
45.831 33.565 3.352
46.158 34.296 2.43
43.858 34.416 4.684
46.155 36.15 4.464
45.506 33.41 5.399
43.408 33.932 5.435
43.719 35.4 4.793
43.463 34.119 3.815
45.897 32.235 3.204
46.331 31.621 1.945
45.316 30.56 1.485
44.931 29.723 2.281
47.711 30.936 2.09
48.042 30.062 0.87
48.805 31.963 2.393
46.365 32.336 1.243
48.62 30.58 0.244
48.739 32.236 3.351
47.665 30.325 2.877
48.523 29.243 1.176
47.194 29.805 0.413
45.62 31.691 4.04
49.697 31.55 2.218
48.677 32.758 1.803
44.952 30.595 0.217
44.068 29.571 -0.373
44.89 28.862 -1.461
45.44 29.458 -2.381
42.797 30.191 -0.972
41.839 30.765 0.089
42.018 29.192 -1.824
40.607 31.406 -0.602
43.907 28.905 0.336
41.257 29.667 -2.261
42.629 28.814 -2.515
43.073 30.949 -1.573
41.529 30.04 0.666
42.305 31.463 0.592
40.144 30.703 -1.129
45.331 31.392 -0.332
40.007 31.767 0.102
41.675 28.465 -1.234
40.926 32.134 -1.196
45.112 27.594 -1.334
45.83 26.767 -2.299
44.722 26.179 -3.196
44.077 25.171 -2.906
46.641 25.67 -1.621
47.689 26.305 -0.698
46.363 27.365 -2.866
44.718 27.172 -0.436
47.11 25.147 -2.307
46.041 25.119 -1.073
47.61 26.128 0.525
48.59 27.029 -1.298
49.321 27.478 -0.753
48.579 27.157 -2.29
44.378 26.978 -4.226
43.233 26.729 -5.1
43.08 25.39 -5.745
41.986 24.845 -5.983
45.015 27.804 -4.343
42.364 26.95 -4.559
43.23 27.468 -5.841
44.197 24.712 -5.976
44.337 23.38 -6.48
43.857 22.387 -5.421
43.584 21.255 -5.815
45.783 23.066 -6.9
46.664 22.614 -5.728
47.219 23.805 -4.952
46.862 24.971 -5.264
48.082 23.505 -4.093
46.112 22.093 -5.116
43.791 23.258 -7.313
47.422 22.117 -6.089
45.074 25.31 -5.727
46.174 23.885 -7.263
45.754 22.333 -7.546
43.691 22.764 -4.175
43.166 21.837 -3.18
41.686 22.068 -2.918
41.125 21.355 -2.087
43.904 21.885 -1.842
45.391 21.558 -1.867
46.198 21.988 -0.657
45.494 20.553 -1.977
43.273 20.9 -3.542
45.798 21.99 -2.692
43.954 23.741 -3.962
43.456 21.236 -1.204
43.798 22.814 -1.45
47.877 22.082 -1.771
45.772 22.11 0.486
47.505 22.224 -0.828
48.088 22.525 -0.064
41.104 23.052 -3.574
39.685 23.367 -3.364
38.828 22.453 -4.241
38.996 22.476 -5.466
39.462 24.846 -3.677
40.297 25.682 -2.702
37.976 25.18 -3.592
39.9 25.49 -1.247
39.483 23.126 -2.417
37.85 26.144 -3.814
37.48 24.611 -4.244
39.792 25.025 -4.591
41.255 25.432 -2.81
40.184 26.644 -2.938
40.017 24.531 -0.999
41.709 23.572 -4.232
40.481 26.061 -0.671
37.657 24.997 -2.665
38.945 25.754 -1.13
38.02 21.606 -3.637
37.284 20.589 -4.391
35.779 20.775 -4.298
35.082 19.956 -4.877
37.586 19.162 -3.93
39.016 18.752 -3.702
39.804 18.192 -4.85
39.19 17.2 -5.707
39.806 16.675 -6.777
41.041 17.053 -7.088
39.201 15.771 -7.536
39.044 18.057 -2.938
37.559 20.649 -5.364
38.265 16.886 -5.5
39.539 19.563 -3.331
39.65 15.4 -8.334
38.274 15.46 -7.294
37.948 21.713 -2.609
40.675 17.797 -4.466
40.109 18.984 -5.435
41.482 16.664 -7.905
41.525 17.711 -6.522
37.184 18.527 -4.619
37.073 19.006 -3.063
35.292 21.765 -3.617
33.905 22.138 -3.47
33.855 23.536 -2.828
34.895 23.946 -2.281
33.162 21.185 -2.53
33.652 21.389 -1.203
36.068 22.345 -3.122
33.493 22.211 -4.373
33.347 20.258 -2.8
32.202 21.394 -2.552
32.929 21.174 -0.551
32.667 24.117 -2.77
32.474 25.422 -2.134
32.506 25.288 -0.606
33.003 26.167 0.113
31.201 26.118 -2.64
30.996 27.505 -2.043
29.956 25.294 -2.294
31.631 28.682 -2.71
33.268 25.979 -2.387
29.158 25.741 -2.69
30.064 24.379 -2.674
31.282 26.218 -3.638
29.987 27.669 -1.978
31.317 27.471 -1.07
31.292 28.765 -3.649
31.892 23.579 -3.207
31.409 29.519 -2.207
29.87 25.249 -1.302
32.626 28.566 -2.73
32.16 24.102 -0.105
32.396 23.743 1.274
33.884 23.826 1.659
34.185 24.451 2.702
31.821 22.381 1.675
32.371 21.353 0.865
31.706 23.463 -0.799
31.897 24.395 1.867
30.837 22.4 1.549
32.05 22.203 2.624
33.359 21.311 1.007
34.773 23.314 0.831
36.218 23.396 1.103
36.67 24.855 1.206
37.558 25.229 1.962
37.066 22.82 -0.047
37.106 21.306 -0.083
36.58 20.716 0.877
37.641 20.698 -1.027
34.384 22.856 -0.014
36.372 22.975 2.002
37.995 23.166 0.061
36.678 23.153 -0.904
36.115 25.638 0.26
36.518 27.043 0.157
36.103 27.786 1.406
36.92 28.451 2.04
35.951 27.665 -1.123
36.296 29.144 -1.353
37.799 29.338 -1.422
35.598 29.677 -2.61
34.61 29.589 -2.5
35.838 30.638 -2.737
35.897 29.148 -3.402
35.428 25.184 -0.341
38.174 28.798 -2.177
38.007 30.306 -1.572
38.217 29.039 -0.563
37.516 27.079 0.074
35.922 29.682 -0.598
34.962 27.595 -1.086
36.31 27.155 -1.896
34.852 27.643 1.814
34.378 28.291 3.037
35.125 27.763 4.24
35.436 28.594 5.081
32.873 28.158 3.31
32.132 29.038 2.351
34.254 27.051 1.213
34.553 29.278 2.957
32.683 28.458 4.228
32.598 27.224 3.162
31.256 28.717 1.355
32.817 30.941 2.958
31.448 31.846 1.09
31.525 30.887 1.34
32.26 30.394 2.331
30.888 29.875 0.714
30.938 27.794 1.133
35.292 26.44 4.319
36.056 25.91 5.475
37.5 26.361 5.461
38.051 26.642 6.533
35.929 24.383 5.511
34.518 24.026 5.95
34.043 22.605 5.789
34.421 24.285 6.94
35.618 26.27 6.311
33.866 24.641 5.446
34.89 25.879 3.589
36.561 24.026 6.169
36.074 24.03 4.61
32.127 23.312 5.997
34.751 21.61 5.642
32.705 22.513 5.847
32.265 21.576 5.732
38.127 26.497 4.264
39.483 27.039 4.265
39.439 28.467 4.802
40.298 28.829 5.575
40.107 27.072 2.856
40.185 25.723 2.418
41.477 27.765 2.977
40.047 26.489 4.878
41.635 28.33 2.167
41.486 28.341 3.795
37.603 26.21 3.454
39.488 27.579 2.24
42.194 27.071 3.047
39.268 25.365 2.202
38.502 29.289 4.32
38.35 30.646 4.817
38.137 30.71 6.319
38.68 31.609 6.978
37.181 31.356 4.102
37.342 31.588 2.605
36.056 32.203 2.003
38.528 32.45 2.247
39.373 32.019 2.57
38.579 32.565 1.253
38.437 33.351 2.676
37.908 28.877 3.575
35.876 33.074 2.451
36.193 32.342 1.026
35.297 31.576 2.156
39.193 31.167 4.592
37.523 30.718 2.15
37.062 32.244 4.536
36.366 30.797 4.236
37.289 29.834 6.882
37.052 29.82 8.326
38.361 29.67 9.135
38.637 30.362 10.087
36.17 28.653 8.748
35.777 28.562 10.212
34.994 27.273 10.478
34.074 27.458 11.663
33.108 26.374 11.907
36.614 30.69 8.596
34.648 27.586 12.502
33.562 28.338 11.542
36.598 28.557 10.774
35.202 29.338 10.449
33.181 26.061 12.857
32.177 26.705 11.741
33.298 25.605 11.293
35.637 26.549 10.677
34.453 27.063 9.677
36.831 29.187 6.217
36.649 27.793 8.499
35.318 28.69 8.198
39.225 28.773 8.732
40.521 28.594 9.405
41.437 29.794 9.187
42.033 30.332 10.11
41.158 27.302 8.901
42.639 27.124 9.198
42.825 26.969 10.717
44.232 27.306 11.144
44.273 28.079 12.423
40.356 28.486 10.394
44.756 26.454 11.264
44.677 27.851 10.423
42.968 26.305 8.755
43.135 27.923 8.899
44.28 29.056 12.216
43.467 27.855 12.968
45.099 27.835 12.928
42.627 26.025 10.961
42.189 27.584 11.173
38.935 28.203 7.914
41.032 27.261 7.901
40.662 26.527 9.312
41.625 30.177 7.925
42.621 31.179 7.547
42.3 32.565 8.103
43.19 33.335 8.411
42.789 31.15 6.024
43.342 29.822 5.478
44.822 29.699 5.897
45.559 30.669 5.676
45.268 28.686 6.447
42.864 29.099 5.894
43.534 30.889 7.879
43.316 29.852 4.518
41.004 29.703 7.233
43.426 31.855 5.775
41.904 31.285 5.619
41.025 32.925 8.26
40.614 34.235 8.746
40.149 34.229 10.196
39.591 35.207 10.736
39.499 34.726 7.819
39.814 35.556 6.581
40.901 34.953 5.73
38.566 35.737 5.711
37.86 36.203 6.24
38.8 36.283 4.908
38.233 34.841 5.422
40.338 32.173 8
40.625 34.041 5.418
41.072 35.534 4.93
41.748 34.873 6.262
41.406 34.869 8.669
40.092 36.484 6.876
38.853 35.271 8.387
38.986 33.904 7.503
40.348 33.095 10.868
40.015 32.863 12.255
38.546 33.215 12.481
38.264 33.991 13.362
40.981 33.68 13.138
40.797 32.337 10.261
40.144 31.894 12.47
40.59 34.583 13.296
41.105 33.207 14.006
41.855 33.765 12.668
37.627 32.658 11.677
36.208 33.033 11.741
35.504 32.344 12.897
35.948 31.36 13.464
35.516 32.775 10.401
36 33.428 9.117
35.011 33.268 7.959
36.234 34.924 9.3
36.925 35.069 10.007
36.551 35.32 8.438
35.379 35.364 9.574
38.002 31.951 11.018
34.14 33.69 8.208
35.38 33.715 7.145
34.873 32.296 7.775
36.151 34.03 11.877
36.883 33.019 8.849
34.535 33.032 10.515
35.53 31.765 10.246
34.343 32.843 13.29
33.589 32.261 14.415
33.277 30.802 14.153
33.054 30.451 13.001
32.355 33.13 14.482
32.223 33.689 13.101
33.652 34.018 12.698
31.831 33.014 12.48
34.098 32.376 15.275
33.961 34.85 13.118
33.756 34.027 11.723
31.661 34.513 13.104
32.465 33.867 15.154
31.543 32.59 14.724
33.104 29.978 15.177
32.643 28.598 15.061
31.225 28.533 14.481
30.891 27.587 13.781
32.684 27.961 16.444
32.835 26.469 16.619
33.467 25.722 15.458
34.598 26.106 15.08
32.818 24.783 14.935
33.406 26.304 17.42
33.268 28.079 14.466
31.929 26.076 16.762
33.334 30.415 16.114
31.827 28.232 16.922
33.451 28.4 16.95
30.427 29.597 14.613
29.11 29.666 13.975
29.166 30.112 12.521
28.153 30.036 11.816
28.172 30.509 14.861
28.547 31.977 14.931
28.557 32.789 13.792
28.868 32.56 16.149
28.928 34.119 13.839
29.229 33.899 16.242
29.279 34.657 15.064
29.586 35.992 15.172
28.699 28.737 14.005
28.942 34.676 13.017
29.446 34.312 17.112
30.817 30.361 15.2
28.838 32.005 16.983
28.284 32.386 12.908
28.201 30.135 15.783
27.251 30.438 14.49
29.122 36.496 14.445
30.365 30.438 11.989
30.456 30.85 10.577
29.46 30.154 9.662
29.483 28.917 9.525
31.835 30.621 9.984
32.038 31.156 8.604
31.657 32.458 8.249
32.57 30.355 7.607
31.827 32.919 6.944
32.764 30.804 6.331
32.398 32.102 6.007
32.656 32.538 4.721
30.279 31.852 10.536
31.53 33.847 6.705
33.164 30.212 5.631
31.16 30.375 12.625
32.824 29.403 7.839
31.26 33.06 8.936
32.007 29.629 9.967
32.512 31.05 10.593
31.795 32.786 4.283
28.638 30.956 8.953
27.516 30.349 8.229
27.922 29.78 6.895
27.087 29.197 6.187
28.857 31.944 8.97
27.113 29.616 8.805
26.794 31.051 8.096
29.177 29.944 6.43
29.602 29.348 5.178
28.729 29.779 4.038
28.268 28.927 3.294
29.585 27.789 5.288
30.557 27.418 6.429
30.904 25.953 6.516
30.781 25.193 5.541
31.368 25.543 7.587
31.395 27.924 6.279
30.564 29.607 4.992
30.129 27.683 7.282
29.785 30.52 7.039
29.937 27.441 4.479
28.711 27.531 5.553
28.469 31.082 3.944
27.659 31.625 2.852
28.107 33.046 2.556
28.975 33.618 3.268
26.167 31.493 3.177
25.791 32.44 4.319
27.855 31.076 2.039
28.881 31.666 4.695
25.987 30.569 3.465
25.646 31.743 2.38
25.769 33.651 4.067
25.495 31.829 5.498
25.238 32.392 6.275
25.541 30.843 5.56
27.581 33.609 1.48
28.11 34.893 1.022
27.8 35.979 2.039
28.627 36.829 2.342
27.728 35.22 -0.392
28.222 34.271 -1.508
27.511 34.589 -2.821
29.703 34.43 -1.701
30.187 34.21 -0.85
30.024 33.814 -2.425
29.917 35.375 -1.961
26.822 33.102 1.026
27.705 35.534 -3.084
27.838 33.97 -3.534
26.525 34.471 -2.702
29.106 34.813 0.932
28.023 33.333 -1.24
28.082 36.131 -0.619
26.726 35.236 -0.46
26.608 35.988 2.581
26.159 36.895 3.63
27.005 36.686 4.884
27.508 37.644 5.496
24.672 36.649 3.828
23.791 37.124 2.679
23.977 38.288 2.222
22.919 36.344 2.204
25.955 35.244 2.178
26.332 37.829 3.313
24.384 37.124 4.661
24.531 35.664 3.945
27.33 35.436 5.256
28.168 35.177 6.436
29.568 35.738 6.257
30.124 36.4 7.124
28.229 33.707 6.771
26.946 34.69 4.652
27.739 35.62 7.234
27.726 33.18 6.084
29.183 33.4 6.785
27.82 33.545 7.671
30.104 35.556 5.025
31.439 36.13 4.785
31.479 37.645 4.803
32.441 38.213 5.362
31.822 35.582 3.403
33.172 36.03 2.873
34.3 35.495 3.788
33.301 35.437 1.46
32.558 35.783 0.891
34.179 35.707 1.071
33.248 34.442 1.517
29.556 35.045 4.365
34.259 34.5 3.8
35.178 35.797 3.427
34.166 35.854 4.707
32.064 35.78 5.511
33.216 37.024 2.863
31.128 35.88 2.759
31.835 34.59 3.467
30.51 38.34 4.174
30.498 39.798 4.269
30.492 40.314 5.699
31.174 41.278 6.055
29.245 40.354 3.574
29.057 41.817 3.768
28.204 42.4 4.655
29.718 42.877 3.068
28.288 43.754 4.532
29.227 44.08 3.587
30.693 42.908 2.059
29.66 45.334 3.142
31.126 44.148 1.608
30.609 45.338 2.153
30.954 46.212 1.798
31.346 40.139 3.824
27.745 44.424 5.053
31.065 42.073 1.677
31.81 44.192 0.89
29.286 46.17 3.535
27.614 41.913 5.291
29.831 37.782 3.659
28.447 39.894 3.946
29.324 40.186 2.599
29.579 39.707 6.502
29.498 40.051 7.917
30.817 39.757 8.636
31.291 40.533 9.509
28.356 39.22 8.549
28.166 39.46 10.026
27.89 40.644 10.32
28.319 38.546 10.885
28.985 39.018 6.031
29.349 41.045 7.976
28.57 38.257 8.398
27.514 39.458 8.068
31.431 38.63 8.31
32.742 38.36 9.003
33.78 39.388 8.568
34.448 40.008 9.389
33.302 36.98 8.733
31.012 38.028 7.641
32.587 38.44 9.986
32.597 36.404 8.316
34.083 37.048 8.11
33.602 36.562 9.592
33.83 39.629 7.235
34.765 40.62 6.727
34.55 42.026 7.294
35.526 42.745 7.431
34.795 40.688 5.184
35.287 39.355 4.562
35.282 39.402 3.056
36.676 38.963 5.045
36.666 38.852 6.039
36.948 38.101 4.618
37.331 39.677 4.797
33.186 39.079 6.669
35.886 40.135 2.734
35.604 38.528 2.685
34.352 39.575 2.722
35.71 40.327 6.967
34.684 38.619 4.885
35.425 41.382 4.922
33.886 40.838 4.869
33.31 42.408 7.611
33.095 43.773 8.045
32.801 43.923 9.521
32.692 45.066 9.979
31.935 44.385 7.206
30.798 43.561 7.481
32.305 44.424 5.729
33.938 44.314 7.831
33.237 44.076 5.603
31.668 43.854 5.204
32.587 41.697 7.523
31.753 45.311 7.544
32.257 45.367 5.392
30.875 42.684 6.995
32.637 42.863 10.268
32.334 42.874 11.689
32.993 41.731 12.452
32.394 41.407 13.488
32.747 41.945 9.732
32.636 43.758 12.092
31.327 42.821 11.82
34.154 41.21 12.048
34.776 40.143 12.855
36.301 40.097 12.659
37.092 40.158 13.601
34.248 38.75 12.486
34.816 37.646 13.34
35.961 36.935 13.097
34.269 37.148 14.557
36.157 36.025 14.088
35.131 36.128 15.005
33.125 37.429 15.309
34.895 35.402 16.169
32.901 36.714 16.472
33.779 35.705 16.894
33.575 35.211 17.735
34.603 40.355 13.823
36.918 35.378 14.155
32.479 38.131 15.018
32.094 36.923 17.022
35.537 34.679 16.452
36.558 37.07 12.308
34.547 41.587 11.192
34.494 38.551 11.547
33.264 38.737 12.606
36.691 39.942 11.407
38.056 39.834 10.941
38.986 40.93 11.394
38.674 42.112 11.487
38.019 39.761 9.398
39.292 40.175 8.714
37.628 38.298 9.028
38.434 38.94 11.281
39.75 39.371 8.326
37.121 37.909 9.789
37.291 40.394 9.088
39.09 40.822 7.975
39.908 40.615 9.372
35.863 39.9 10.723
37.065 38.323 8.209
38.463 37.784 8.864
40.191 40.543 11.762
41.26 41.412 12.208
41.925 41.916 10.925
41.998 41.159 9.954
42.254 40.612 13.054
43.546 41.345 13.344
44.724 40.496 13.74
44.651 39.275 14.011
45.817 41.106 13.779
43.804 41.852 12.521
40.898 42.176 12.712
43.376 41.989 14.091
40.322 39.482 11.702
42.477 39.793 12.556
41.819 40.414 13.915
42.307 43.172 10.899
42.947 43.869 9.8
44.246 44.476 10.293
44.347 44.7 11.511
41.936 44.973 9.379
40.758 44.404 8.608
41.035 43.822 7.369
39.447 44.381 9.049
40.035 43.257 6.617
38.43 43.818 8.286
38.728 43.265 7.055
37.801 42.675 6.215
43.163 43.204 9.084
40.258 42.826 5.727
37.491 43.815 8.627
42.093 43.684 11.826
39.22 44.779 9.942
41.978 43.821 7.03
42.412 45.614 8.799
41.599 45.403 10.2
36.902 42.718 6.643
45.233 44.778 9.459
45.204 44.537 8.045
45.185 43.068 7.682
45.794 42.219 8.351
46.534 45.061 7.479
47.263 45.627 8.623
46.521 45.39 9.899
48.211 45.223 8.682
44.414 45.02 7.608
46.341 46.244 10.393
47.008 44.758 10.504
47.42 46.638 8.485
46.357 45.757 6.769
47.048 44.305 7.048
44.659 42.807 6.518
44.429 41.459 5.993
45.017 41.382 4.594
44.881 42.228 3.691
42.948 41.128 5.988
42.402 39.87 5.286
42.823 38.582 5.969
40.879 39.861 5.238
40.556 40.664 4.737
40.564 39.032 4.777
40.515 39.882 6.169
44.399 43.669 5.956
42.484 38.574 6.911
42.443 37.799 5.475
43.822 38.515 5.976
44.904 40.806 6.576
42.732 39.869 4.333
42.453 41.921 5.579
42.639 41.069 6.96
45.812 40.344 4.431
46.404 39.959 3.17
45.835 38.563 2.841
46.173 37.519 3.454
47.916 39.966 3.116
48.507 39.627 1.744
48.44 41.358 3.496
46.095 40.578 2.465
48.737 38.656 1.716
48.132 41.578 4.419
48.261 39.257 3.753
47.835 39.834 1.036
49.33 40.172 1.597
45.986 39.8 5.326
49.437 41.349 3.461
48.082 42.026 2.848
45.125 38.555 1.739
44.607 37.299 1.168
45.409 36.93 -0.094
45.424 37.66 -1.088
43.148 37.392 0.784
42.537 36.169 0.067
42.412 34.975 1.017
41.129 36.564 -0.372
41.181 37.346 -0.991
40.699 35.794 -0.842
40.587 36.809 0.431
44.956 39.48 1.304
41.822 35.224 1.784
42.015 34.202 0.525
43.318 34.727 1.357
44.727 36.57 1.84
43.126 35.921 -0.702
43.03 38.172 0.171
42.61 37.534 1.615
46.015 35.744 0.008
46.758 35.254 -1.16
45.976 34.087 -1.759
45.997 32.997 -1.161
48.163 34.834 -0.777
48.924 34.104 -1.853
50.375 33.879 -1.397
50.653 34.068 -0.193
51.189 33.543 -2.287
48.529 33.228 -1.984
46.844 35.98 -1.832
48.96 34.655 -2.65
45.923 35.258 0.886
48.096 34.231 0.006
48.672 35.653 -0.551
45.43 34.283 -2.927
44.591 33.188 -3.485
45.354 32.6 -4.675
45.367 33.272 -5.7
43.236 33.73 -3.831
42.141 32.8 -4.21
42.262 31.58 -4.774
40.735 33.053 -4.051
41.027 31.021 -4.969
40.061 31.887 -4.524
39.967 34.108 -3.579
38.683 31.779 -4.539
38.586 33.99 -3.571
37.949 32.823 -4.072
36.955 32.792 -4.071
44.522 32.488 -2.791
40.851 30.121 -5.373
40.396 34.95 -3.244
38.031 34.729 -3.212
38.245 30.936 -4.893
43.129 31.138 -5.019
45.599 35.159 -3.396
43.333 34.393 -4.606
42.888 34.279 -3.039
45.983 31.454 -4.492
46.795 30.833 -5.527
45.939 29.901 -6.391
44.926 29.429 -5.911
47.939 29.995 -4.953
48.946 30.773 -4.107
49.648 29.821 -3.125
50.556 30.586 -2.245
51.266 29.982 -1.292
51.166 28.65 -1.074
52.041 30.771 -0.558
48.475 31.461 -3.579
47.179 31.549 -6.118
50.632 31.557 -2.371
49.635 31.171 -4.691
52.588 30.348 0.196
52.096 31.742 -0.728
45.849 31.031 -3.544
50.172 29.173 -3.65
48.958 29.382 -2.578
51.693 28.236 -0.347
50.564 28.107 -1.651
48.436 29.58 -5.713
47.545 29.279 -4.378
46.344 29.67 -7.638
45.611 28.739 -8.493
44.126 29.064 -8.536
43.25 28.184 -8.513
45.834 27.336 -7.926
47.024 26.558 -8.409
48.301 27.314 -8.587
47.193 25.79 -7.755
45.975 28.829 -9.431
46.782 26.12 -9.301
47.184 30.184 -7.934
44.995 26.783 -8.115
45.897 27.414 -6.909
48.229 26.913 -10.578
48.904 27.86 -7.666
48.741 27.372 -9.837
49.609 27.886 -10.055
43.8 30.343 -8.761
42.421 30.811 -8.782
41.574 29.982 -9.767
40.491 29.554 -9.363
42.306 32.321 -9.012
40.928 32.868 -8.792
40.439 33.202 -7.543
40.047 32.972 -9.889
39.136 33.672 -7.382
38.752 33.41 -9.71
38.292 33.764 -8.456
37.353 34.084 -8.337
42.035 30.645 -7.869
38.828 33.942 -6.455
38.128 33.471 -10.516
44.621 30.97 -8.919
40.377 32.724 -10.797
41.021 33.11 -6.737
42.564 32.503 -9.95
42.92 32.769 -8.379
42.049 29.79 -10.989
41.408 29.097 -12.069
41.027 27.675 -11.672
39.839 27.335 -11.746
42.198 29.035 -13.39
41.419 28.317 -14.51
40.192 29.089 -15.017
39.961 30.281 -14.729
39.366 28.551 -15.791
42.028 28.197 -15.274
40.574 29.593 -12.357
41.098 27.456 -14.155
43.03 30.232 -11.109
43.013 28.526 -13.229
42.358 29.95 -13.687
41.982 26.931 -11.112
41.638 25.603 -10.603
40.562 25.632 -9.534
39.671 24.759 -9.601
42.898 24.855 -10.146
43.81 24.461 -11.334
44.915 23.53 -10.863
43.258 23.994 -12.005
41.287 25.056 -11.384
44.213 25.284 -11.7
42.911 27.345 -11.074
42.631 24.02 -9.682
43.425 25.441 -9.545
44.683 22.32 -12.437
45.51 23.777 -9.808
45.246 22.452 -11.577
45.97 21.83 -11.306
40.519 26.57 -8.599
39.511 26.652 -7.551
38.12 26.966 -8.107
37.076 26.707 -7.509
39.949 27.706 -6.507
39.643 29.029 -6.945
41.304 27.279 -8.679
39.461 25.753 -7.091
40.931 27.628 -6.374
39.468 27.527 -5.656
39.997 29.159 -7.868
38.021 27.486 -9.318
36.756 27.733 -9.979
36.123 26.454 -10.53
34.907 26.418 -10.724
36.958 28.659 -11.169
37.279 30.101 -10.928
37.391 30.894 -12.211
36.362 30.592 -13.258
34.969 30.549 -12.733
36.11 28.147 -9.315
36.411 31.294 -13.988
36.573 29.698 -13.687
36.557 30.514 -10.357
38.152 30.172 -10.429
34.736 31.437 -12.339
34.34 30.339 -13.481
34.902 29.842 -12.03
38.313 30.733 -12.608
37.338 31.883 -11.981
38.949 27.707 -9.765
36.109 28.611 -11.742
37.703 28.258 -11.747
36.909 25.409 -10.765
36.407 24.195 -11.389
35.351 23.436 -10.604
34.427 22.844 -11.19
37.548 23.216 -11.717
38.578 23.775 -12.674
39.681 22.794 -12.976
38.122 24.019 -13.531
35.991 24.459 -12.29
38.981 24.597 -12.268
37.899 25.534 -10.468
37.149 22.393 -12.126
38.009 22.971 -10.863
40.558 24.176 -14.18
39.717 21.664 -12.484
40.635 23.24 -13.803
41.426 22.639 -14.047
35.549 23.321 -9.301
34.611 22.518 -8.514
33.8 23.384 -7.557
33.12 22.861 -6.668
35.396 21.417 -7.821
35.862 20.214 -8.653
36.821 19.324 -7.854
34.673 19.384 -9.104
34.063 19.946 -9.663
34.992 18.605 -9.644
34.173 19.049 -8.304
36.357 23.807 -8.917
36.355 18.987 -7.038
37.105 18.553 -8.422
37.621 19.858 -7.588
33.974 22.06 -9.147
36.329 20.547 -9.473
34.828 21.053 -7.075
36.222 21.83 -7.419
33.841 24.706 -7.732
33.072 25.584 -6.853
31.921 26.242 -7.608
31.158 27.041 -7.061
33.944 26.711 -6.276
34.463 27.447 -7.396
35.04 26.115 -5.402
32.685 25.03 -6.107
34.654 25.399 -4.815
35.756 25.716 -5.98
34.433 25.034 -8.503
33.363 27.331 -5.732
35.442 26.831 -4.827
35.446 27.269 -7.504
31.785 25.854 -8.861
30.798 26.37 -9.797
30.998 27.873 -9.965
31.999 28.298 -10.552
29.378 26.012 -9.383
29.156 24.525 -9.115
27.735 24.156 -8.698
26.83 24.952 -8.581
27.629 22.929 -8.483
29.357 24.029 -9.947
30.9 25.919 -10.684
29.759 24.25 -8.38
32.484 25.102 -9.146
28.772 26.272 -10.115
29.173 26.494 -8.548
30.116 28.675 -9.393
30.248 30.129 -9.475
30.816 30.714 -8.178
30.962 31.923 -7.979
28.871 30.724 -9.784
28.95 32.188 -10.191
30.916 30.327 -10.202
29.343 28.2 -8.894
28.307 30.652 -8.968
28.466 30.209 -10.532
30.024 32.786 -10.251
27.784 32.77 -10.494
27.769 33.729 -10.774
26.938 32.246 -10.439
31.18 29.828 -7.268
31.489 30.193 -5.911
32.801 30.946 -5.78
32.849 31.898 -5.001
31.223 28.841 -7.623
30.739 30.769 -5.532
31.53 29.356 -5.332
33.837 30.532 -6.505
35.136 31.192 -6.412
35.025 32.663 -6.782
35.442 33.527 -5.994
36.159 30.501 -7.296
33.646 29.724 -7.123
35.467 31.122 -5.463
35.814 29.603 -7.57
36.326 31.054 -8.112
37.016 30.387 -6.793
34.277 32.968 -7.851
34.117 34.369 -8.28
33.245 35.103 -7.29
33.59 36.223 -6.906
33.572 34.5 -9.694
34.544 34.012 -10.761
35.615 34.984 -11.176
35.752 36.044 -10.524
36.289 34.693 -12.21
34.996 33.195 -10.409
35.018 34.802 -8.333
34.014 33.781 -11.574
33.841 32.17 -8.328
33.397 35.45 -9.867
32.762 33.95 -9.76
32.153 34.481 -6.85
31.276 35.136 -5.863
32.084 35.503 -4.619
31.961 36.624 -4.169
30.102 34.249 -5.406
29.204 34.099 -6.509
31.98 33.549 -7.238
30.933 35.982 -6.271
29.634 34.697 -4.669
30.45 33.368 -5.152
29.587 33.443 -7.155
32.833 34.546 -4.081
33.594 34.838 -2.858
34.557 35.969 -3.057
34.638 36.862 -2.215
34.273 33.54 -2.353
35.321 33.852 -1.305
33.157 32.65 -1.747
32.928 35.101 -2.143
35.201 34.79 -0.976
32.432 32.55 -2.421
34.743 33.129 -3.129
35.228 33.218 -0.536
36.235 33.757 -1.702
32.835 33.647 -4.559
33.548 31.763 -1.523
32.81 33.094 -0.927
35.345 35.949 -4.129
36.261 36.966 -4.498
35.598 38.338 -4.491
36.17 39.288 -3.986
36.856 36.82 -5.927
37.798 37.976 -6.329
38.849 38.313 -5.259
38.467 37.612 -7.669
37.761 37.486 -8.361
39.078 38.352 -7.939
38.985 36.768 -7.555
35.212 35.054 -4.706
39.414 37.508 -5.091
39.419 39.064 -5.585
38.385 38.582 -4.418
37.026 36.991 -3.835
37.24 38.797 -6.511
36.108 36.811 -6.562
37.38 35.989 -5.948
34.458 38.442 -5.178
33.64 39.628 -5.232
33.294 40.155 -3.846
33.369 41.374 -3.683
32.314 39.285 -5.965
31.598 40.491 -6.535
30.321 40.122 -7.235
31.386 41.121 -5.786
34.162 40.353 -5.711
32.206 40.946 -7.188
34.205 37.549 -5.693
31.708 38.832 -5.311
32.528 38.656 -6.712
30.019 42.083 -7.68
29.92 38.96 -7.323
29.649 41.148 -7.78
28.777 40.978 -8.286
32.994 39.283 -2.871
32.662 39.754 -1.53
33.857 40.463 -0.877
33.806 41.605 -0.336
32.093 38.621 -0.667
31.908 39.066 0.799
30.702 38.115 -1.116
31.914 40.424 -1.606
32.365 38.412 1.396
30.462 38.563 -1.972
32.757 37.877 -0.653
32.309 39.971 0.915
30.934 39.095 1.008
33.02 38.293 -3.148
30.749 37.128 -1.243
30.038 38.342 -0.409
35.052 39.851 -1.057
36.245 40.522 -0.53
36.444 41.856 -1.266
36.804 42.877 -0.631
37.488 39.679 -0.714
37.677 38.518 0.223
37.22 37.237 -0.06
38.409 38.745 1.37
37.43 36.216 0.863
38.662 37.732 2.267
38.171 36.472 1.989
38.364 35.712 2.637
36.057 40.747 0.424
37.036 35.308 0.693
39.19 37.909 3.103
35.036 38.972 -1.543
38.765 39.669 1.553
36.751 37.046 -0.906
38.287 40.28 -0.613
37.477 39.312 -1.649
36.307 41.844 -2.604
36.491 43.143 -3.3
35.523 44.219 -2.823
35.918 45.394 -2.757
36.364 43.059 -4.824
37.222 41.9 -5.351
38.209 42.419 -6.353
37.741 42.965 -7.525
37.273 43.517 -8.579
36.507 42.81 -9.417
37.618 44.771 -8.829
36.632 41.239 -5.791
37.439 43.456 -3.131
38.432 42.03 -8.337
37.712 41.494 -4.593
37.278 45.239 -9.672
38.21 45.273 -8.202
36.093 40.976 -3.041
38.858 41.634 -6.557
38.803 43.106 -5.851
36.15 43.246 -10.266
36.283 41.863 -9.216
36.703 43.887 -5.213
35.433 42.874 -5.051
34.267 43.839 -2.529
33.332 44.893 -2.067
33.664 45.399 -0.671
33.663 46.594 -0.391
31.906 44.36 -2.089
31.434 44.197 -3.52
30.01 43.688 -3.576
29.232 43.928 -2.632
29.72 43.039 -4.589
31.454 45.073 -3.954
33.357 45.662 -2.724
32.003 43.536 -3.962
34.041 42.871 -2.64
31.334 45.013 -1.659
31.906 43.484 -1.674
34.044 44.459 0.195
34.554 44.692 1.519
35.72 45.663 1.41
35.757 46.607 2.17
35.017 43.419 2.25
33.929 43.472 -0.204
33.844 45.112 2.081
34.445 42.654 1.965
35.969 43.237 2.016
34.931 43.559 3.233
36.632 45.438 0.472
37.751 46.347 0.246
37.248 47.697 -0.272
37.726 48.757 0.159
38.718 45.81 -0.793
40.088 46.452 -0.849
40.914 45.746 -1.954
42.314 46.352 -2.06
43.074 45.65 -3.127
38.232 46.497 1.115
42.23 47.314 -2.289
42.779 46.238 -1.19
40.003 47.404 -1.089
40.553 46.328 0.01
43.309 44.729 -2.817
42.512 45.592 -3.952
43.911 46.159 -3.328
40.447 45.866 -2.817
40.996 44.79 -1.717
36.482 44.569 -0.081
38.287 45.91 -1.704
38.843 44.82 -0.624
36.288 47.673 -1.188
35.721 48.933 -1.67
35.032 49.658 -0.515
35.052 50.877 -0.453
34.774 48.713 -2.846
35.995 46.748 -1.51
36.462 49.511 -2.014
34.036 49.385 -2.809
35.278 48.818 -3.702
34.39 47.792 -2.795
34.46 48.96 0.457
33.786 49.517 1.602
34.751 50.156 2.602
34.272 50.7 3.597
33.027 48.413 2.337
31.937 48.785 3.324
30.631 49.1 2.613
30.492 48.844 1.394
29.716 49.609 3.286
31.776 48.021 3.911
33.113 50.217 1.303
32.213 49.59 3.804
34.547 47.905 0.31
33.708 47.865 2.838
32.605 47.824 1.636
36.065 50.01 2.462
36.993 50.613 3.389
37.848 49.608 4.131
38.907 49.992 4.632
36.352 49.436 1.644
37.601 51.261 2.886
36.477 51.176 4.067
37.43 48.348 4.171
38.243 47.298 4.791
39.659 47.317 4.207
39.879 47.532 3.013
37.63 45.923 4.587
36.507 48.175 3.739
38.302 47.474 5.776
36.819 45.828 5.165
37.369 45.811 3.628
38.296 45.219 4.833
40.61 47.063 5.086
42.032 47.08 4.762
42.454 45.679 4.355
43.044 44.911 5.122
42.863 47.59 5.928
44.331 47.821 5.665
44.893 47.541 4.597
45.005 48.326 6.602
40.255 46.844 6.053
42.147 47.668 3.963
42.775 46.924 6.685
42.453 48.462 6.241
42.125 45.374 3.111
42.33 44.037 2.561
43.227 44.121 1.334
42.981 44.896 0.405
40.979 43.413 2.177
40.032 43.244 3.365
41.185 42.022 1.552
38.633 42.798 3.046
42.837 43.523 3.253
40.3 41.675 1.256
41.801 42.113 0.775
40.535 44.024 1.513
40.449 42.582 4.006
39.987 44.13 3.853
38.659 41.908 2.59
41.712 46.157 2.562
38.103 42.721 3.892
41.581 41.422 2.241
38.196 43.466 2.442
44.288 43.335 1.343
45.15 43.225 0.149
44.839 41.852 -0.446
44.845 40.829 0.274
46.647 43.402 0.433
46.887 44.747 0.96
47.492 43.235 -0.805
44.88 43.917 -0.495
48.246 42.595 -0.626
46.934 42.875 -1.56
44.464 42.821 2.216
46.936 42.74 1.149
47.879 44.12 -1.083
46.103 45.035 1.51
44.571 41.811 -1.741
44.244 40.577 -2.462
45.319 40.281 -3.502
45.72 41.12 -4.329
42.887 40.68 -3.194
41.796 41.052 -2.182
42.46 39.398 -3.917
40.504 41.463 -2.891
44.286 39.84 -1.787
41.596 39.568 -4.384
43.167 39.153 -4.575
42.953 41.41 -3.857
41.611 40.271 -1.611
42.114 41.814 -1.642
40.184 40.7 -3.446
44.611 42.746 -2.22
39.82 41.697 -2.206
42.351 38.673 -3.242
40.69 42.252 -3.47
45.813 39.064 -3.436
46.857 38.576 -4.321
46.361 37.334 -5.037
45.861 36.374 -4.408
48.188 38.3 -3.646
48.704 39.537 -2.9
49.21 37.828 -4.675
49.786 39.274 -1.886
46.987 39.279 -5.02
50.058 37.597 -4.204
48.848 37.025 -5.143
48.058 37.574 -2.971
49.045 40.193 -3.582
47.921 39.965 -2.435
50.579 38.867 -2.34
45.386 38.465 -2.682
50.056 40.135 -1.454
49.371 38.563 -5.33
49.444 38.645 -1.187
46.225 37.496 -6.341
45.641 36.452 -7.181
46.742 35.841 -8.027
47.355 36.592 -8.777
44.518 36.999 -8.066
43.324 37.694 -7.419
42.485 38.507 -8.407
42.451 36.714 -6.698
42.973 36.25 -5.976
41.671 37.187 -6.278
42.102 36.023 -7.338
46.559 38.405 -6.712
42.132 37.9 -9.118
41.723 38.934 -7.921
43.056 39.214 -8.822
45.26 35.744 -6.59
43.658 38.31 -6.69
44.156 36.227 -8.608
44.934 37.66 -8.709
46.991 34.543 -7.867
48.009 33.831 -8.621
47.442 32.495 -9.155
49.291 33.499 -7.858
48.992 33.205 -6.487
46.178 32.46 -9.241
48.005 31.575 -9.468
46.385 34.079 -7.146
48.265 34.385 -9.416
49.899 34.281 -7.889
49.716 32.703 -8.267
48.003 33.203 -6.363
