16.264 53.631 26.85
16.716 52.843 25.669
15.65 51.875 25.166
15.025 51.158 25.949
17.996 52.032 25.993
18.213 50.936 24.959
19.192 52.955 26.011
20.034 52.417 25.951
16.566 53.17 27.681
16.663 54.544 26.802
17.852 51.584 26.869
18.297 51.346 24.051
19.05 50.434 25.176
17.435 50.308 24.97
15.268 53.693 26.836
19.145 53.583 25.233
19.198 53.483 26.861
16.921 53.501 24.93
15.448 51.875 23.852
14.503 50.974 23.204
15.342 50.225 22.187
15.787 50.811 21.197
13.398 51.733 22.455
12.561 52.545 23.447
12.536 50.744 21.681
11.522 53.419 22.798
14.232 50.32 23.885
11.839 51.249 21.176
13.116 50.236 21.048
13.831 52.368 21.827
12.111 51.907 24.072
13.184 53.121 23.979
10.887 52.852 22.272
16.022 52.573 23.327
11.016 53.918 23.502
12.104 50.117 22.327
11.968 54.072 22.186
15.561 48.936 22.421
16.397 48.154 21.518
15.946 46.71 21.333
16.771 45.83 21.102
17.848 48.185 22.015
18.081 47.271 23.205
16.344 48.599 20.602
15.106 48.554 23.262
18.067 49.119 22.283
18.441 47.894 21.269
17.195 47.059 24.029
19.286 46.73 23.301
19.502 46.113 24.06
19.986 46.936 22.615
14.641 46.473 21.442
14.072 45.138 21.255
13.301 45.154 19.937
12.896 46.213 19.475
13.114 44.761 22.404
12.137 45.793 22.578
13.885 44.582 23.695
14.814 44.484 21.178
14.868 44.517 23.502
13.724 45.365 24.303
14.065 47.31 21.669
12.627 43.899 22.155
13.588 43.742 24.159
12.53 46.564 23.09
13.094 43.99 19.329
12.39 43.94 18.05
11.043 44.662 18.014
10.815 45.51 17.15
12.214 42.49 17.595
13.488 41.845 17.115
14.129 42.309 15.966
14.035 40.761 17.792
15.292 41.7 15.495
15.202 40.143 17.329
15.829 40.615 16.176
16.66 40.176 15.841
12.989 44.409 17.366
15.733 42.052 14.663
15.583 39.356 17.834
13.458 43.162 19.819
13.594 40.417 18.619
13.754 43.088 15.472
11.569 42.483 16.847
11.88 41.969 18.365
10.146 44.343 18.938
8.846 44.995 18.926
8.888 46.471 19.267
8.197 47.274 18.639
7.878 44.27 19.854
7.42 42.952 19.269
6.915 42.967 18.125
7.575 41.914 19.937
10.436 43.637 19.62
8.483 44.918 17.975
7.088 44.851 19.992
8.344 44.095 20.71
9.691 46.823 20.263
9.804 48.214 20.656
10.299 49.087 19.518
9.735 50.148 19.252
10.204 46.05 20.712
8.901 48.552 20.967
10.442 48.293 21.438
11.353 48.643 18.84
11.91 49.413 17.733
10.987 49.386 16.51
10.835 50.389 15.827
13.315 48.887 17.357
13.875 49.653 16.156
14.245 49.043 18.557
11.999 50.373 18.029
13.247 50.39 15.913
14.785 49.877 18.447
13.217 47.939 17.075
14.765 50.036 16.395
13.975 49.028 15.384
11.73 47.735 19.156
13.698 49.102 19.391
14.852 48.251 18.606
10.366 48.244 16.241
9.452 48.133 15.103
8.27 49.086 15.287
7.872 49.781 14.352
8.938 46.702 14.975
10.576 47.463 16.884
9.943 48.39 14.267
9.71 46.083 14.836
8.452 46.447 15.81
8.316 46.641 14.195
7.704 49.104 16.493
6.567 49.971 16.782
6.98 51.43 16.686
6.235 52.266 16.183
6.014 49.715 18.187
5.227 48.416 18.286
4.922 47.819 17.232
4.913 48.001 19.425
8.131 48.466 17.186
5.88 49.809 16.067
5.414 50.469 18.424
6.782 49.67 18.816
8.172 51.729 17.185
8.677 53.092 17.163
8.858 53.558 15.715
8.458 54.668 15.349
10.001 53.153 17.928
10.423 54.554 18.316
11.128 55.369 17.427
10.112 55.065 19.576
11.517 56.668 17.792
10.495 56.356 19.949
11.197 57.149 19.054
11.582 58.417 19.436
8.001 53.692 17.597
12.019 57.237 17.144
10.263 56.703 20.856
8.696 50.927 17.581
9.606 54.501 20.224
11.362 55.029 16.519
10.714 52.763 17.35
9.906 52.614 18.761
12.567 58.425 19.595
9.45 52.699 14.891
9.675 53.019 13.482
8.364 53.288 12.758
8.253 54.236 11.978
10.412 51.869 12.787
11.927 51.783 13.003
12.446 50.404 12.588
12.605 52.882 12.198
12.272 53.775 12.502
13.595 52.834 12.333
12.396 52.764 11.227
9.733 51.8 15.325
12.244 50.252 11.621
13.433 50.365 12.735
11.996 49.702 13.139
10.245 53.849 13.431
12.127 51.933 13.968
10.257 51.956 11.805
10.017 51.011 13.115
7.371 52.449 13.019
6.06 52.589 12.384
5.324 53.851 12.811
4.607 54.461 12.027
5.156 51.42 12.758
5.53 50.061 12.207
4.476 49.037 12.587
5.578 50.113 11.22
6.207 52.64 11.382
6.397 49.782 12.594
7.597 51.698 13.699
4.211 51.633 12.448
5.126 51.349 13.771
3.916 48.891 10.651
4.302 48.711 13.769
3.745 48.549 11.596
3.025 47.846 11.771
5.496 54.212 14.076
4.803 55.344 14.662
5.424 56.718 14.436
4.699 57.691 14.216
4.637 55.112 16.17
4.105 53.795 16.387
3.689 56.151 16.778
3.845 55.366 14.28
3.202 56.629 16.045
3.027 55.693 17.374
6.169 53.614 14.608
5.551 55.16 16.616
4.216 56.813 17.314
4.834 53.108 16.306
6.75 56.801 14.489
7.441 58.08 14.323
8.298 58.155 13.067
8.891 59.196 12.773
8.306 58.347 15.558
7.522 58.205 16.842
6.533 59.127 17.181
7.709 57.104 17.676
5.742 58.951 18.321
6.924 56.917 18.815
5.943 57.841 19.128
5.139 57.64 20.222
6.736 58.812 14.268
5.038 59.622 18.548
7.073 56.12 19.398
7.24 55.904 14.654
8.416 56.435 17.456
6.383 59.929 16.604
8.65 59.273 15.503
9.046 57.69 15.568
4.475 56.923 20.015
8.37 57.052 12.328
9.16 57.004 11.101
10.621 57.404 11.282
11.187 58.123 10.46
8.518 57.88 10.02
7.231 57.329 9.489
6.737 56.096 9.862
6.335 57.845 8.616
5.593 55.876 9.238
5.326 56.922 8.476
7.178 55.47 10.505
6.394 58.728 8.158
7.828 56.246 12.691
5.029 55.06 9.325
9.137 56.049 10.745
9.162 57.975 9.254
8.338 58.792 10.403
11.222 56.917 12.361
12.623 57.172 12.677
12.978 56.221 13.802
12.096 55.737 14.5
12.83 58.619 13.139
12.07 58.993 14.402
12.351 60.436 14.802
11.55 60.837 16.03
11.75 62.277 16.372
13.178 56.961 11.886
10.577 60.675 15.852
11.839 60.273 16.807
11.091 58.889 14.237
12.353 58.391 15.146
11.625 62.831 15.55
11.083 62.546 17.065
12.675 62.405 16.727
12.098 61.033 14.049
13.319 60.528 15.009
10.601 56.33 12.97
12.533 59.225 12.401
13.806 58.754 13.308
14.264 55.943 13.972
14.71 55.048 15.03
14.717 55.778 16.368
14.693 57.008 16.41
16.134 54.561 14.749
16.397 53.569 13.616
17.896 53.524 13.324
15.882 52.185 14.015
14.9 52.235 14.192
16.056 51.54 13.272
16.356 51.881 14.84
14.906 56.407 13.303
18.385 53.233 14.145
18.07 52.876 12.583
18.209 54.434 13.053
14.069 54.278 15.093
15.912 53.867 12.802
16.483 54.138 15.601
16.703 55.38 14.563
14.728 55.021 17.477
14.757 55.579 18.836
16.082 56.339 18.98
17.008 56.115 18.2
14.713 54.333 19.718
13.891 53.384 18.908
14.435 53.577 17.509
14.027 52.448 19.214
13.987 56.176 18.995
13.755 53.339 16.82
15.265 53.046 17.367
12.928 53.627 18.949
14.276 54.531 20.591
15.63 53.973 19.869
16.181 57.213 19.978
17.388 58.017 20.178
18.66 57.272 20.572
19.754 57.842 20.517
17.121 59.118 21.208
15.932 59.983 20.841
15.797 60.348 19.652
15.133 60.305 21.748
15.346 57.275 20.59
17.584 58.484 19.281
17.93 59.69 21.262
16.943 58.682 22.082
18.541 56.01 20.968
19.726 55.255 21.355
20.477 54.656 20.16
21.341 53.792 20.329
19.353 54.152 22.351
18.151 53.343 21.909
20.363 55.904 21.803
17.586 55.633 20.976
19.146 54.579 23.228
20.133 53.539 22.446
17.005 53.755 22.098
18.406 52.187 21.311
17.655 51.608 20.991
19.353 51.889 21.179
20.151 55.123 18.957
20.806 54.634 17.744
21.681 55.681 17.063
21.345 56.862 17.04
19.764 54.134 16.733
19.195 52.779 17.089
19.93 51.613 16.856
17.964 52.67 17.733
19.452 50.361 17.269
17.472 51.423 18.151
18.224 50.279 17.918
17.763 49.059 18.36
21.398 53.849 18.001
19.99 49.54 17.099
16.591 51.365 18.61
19.41 55.847 18.954
17.42 53.486 17.903
20.81 51.667 16.388
20.202 54.065 15.845
19.019 54.79 16.706
18.39 48.343 18.057
22.806 55.23 16.516
23.725 56.1 15.784
24.352 55.267 14.675
24.584 54.064 14.842
24.854 56.663 16.682
25.712 55.524 17.231
24.255 57.478 17.814
26.931 56.006 17.987
23.165 56.789 15.342
24.994 57.862 18.365
23.701 58.214 17.428
25.43 57.242 16.117
25.151 54.97 17.84
26.012 54.961 16.465
26.64 56.566 18.761
22.976 54.21 16.653
27.448 55.218 18.319
23.685 56.882 18.378
27.505 56.55 17.377
24.623 55.902 13.541
25.21 55.203 12.406
26.657 54.824 12.689
27.245 55.255 13.685
25.187 56.074 11.152
26.075 57.179 11.337
23.777 56.597 10.882
24.687 54.357 12.245
23.603 57.405 11.449
23.689 56.846 9.915
24.387 56.91 13.535
25.522 55.527 10.36
23.106 55.887 11.103
25.662 57.863 11.948
27.23 54.018 11.806
28.61 53.582 11.957
29.574 54.765 11.892
30.534 54.828 12.655
28.955 52.567 10.869
28.141 51.296 10.958
28.274 50.469 9.695
27.354 49.251 9.721
27.311 48.586 8.385
28.716 53.131 12.853
27.695 48.603 10.4
26.433 49.546 9.971
28.462 50.753 11.735
27.178 51.53 11.092
26.566 47.92 8.372
27.158 49.276 7.679
28.18 48.122 8.22
29.213 50.15 9.611
28.028 51.03 8.911
26.621 53.732 11.015
29.92 52.334 10.957
28.786 52.991 9.984
29.316 55.704 10.988
30.188 56.869 10.859
30.138 57.738 12.115
31.174 58.175 12.611
29.801 57.699 9.63
28.469 58.163 9.733
28.48 55.544 10.409
31.134 56.541 10.749
29.885 57.127 8.82
30.415 58.479 9.566
28.011 57.7 10.491
28.938 57.976 12.635
28.783 58.788 13.835
29.52 58.136 14.993
30.198 58.813 15.775
27.304 58.938 14.199
26.446 59.532 13.095
24.999 59.698 13.518
24.388 58.699 13.961
24.473 60.827 13.41
26.796 60.422 12.877
29.154 59.705 13.674
26.462 58.922 12.327
28.146 57.545 12.126
27.247 59.538 14.978
26.953 58.039 14.4
29.382 56.819 15.106
30.047 56.093 16.175
31.556 56.219 15.997
32.277 56.452 16.964
29.631 54.63 16.162
28.782 56.376 14.392
29.794 56.499 17.053
28.664 54.559 15.917
30.181 54.132 15.492
29.774 54.233 17.069
32.032 56.07 14.761
33.464 56.181 14.492
33.984 57.528 14.958
35.057 57.614 15.553
33.755 56.021 13
33.581 54.611 12.483
33.706 54.534 10.976
34.283 54.028 12.89
33.933 55.467 15.02
32.676 54.279 12.745
31.324 55.876 14.037
34.703 56.305 12.827
33.137 56.623 12.487
31.817 53.822 10.854
34.747 54.872 10.408
32.64 54.093 10.318
32.644 54.026 9.3
33.216 58.577 14.688
33.596 59.924 15.081
33.679 60.055 16.603
34.347 60.954 17.122
32.596 60.933 14.52
32.336 58.353 14.181
34.503 60.135 14.695
32.908 61.859 14.726
32.527 60.816 13.531
31.702 60.781 14.938
33.002 59.162 17.32
33.023 59.21 18.778
34.143 58.34 19.334
34.315 58.241 20.544
31.68 58.746 19.354
30.415 59.475 18.892
29.21 58.846 19.563
30.501 60.957 19.233
31.294 61.36 18.775
29.669 61.42 18.926
30.597 61.067 20.222
32.481 58.46 16.774
29.298 58.924 20.558
28.376 59.315 19.268
29.151 57.878 19.312
33.186 60.16 19.065
30.334 59.386 17.906
31.728 58.837 20.351
31.567 57.777 19.119
34.896 57.701 18.445
35.991 56.855 18.884
35.733 55.365 18.781
36.532 54.56 19.267
34.641 57.855 17.458
36.831 57.086 18.341
36.224 57.087 19.856
34.623 54.982 18.157
34.307 53.567 18.013
35.277 52.862 17.081
35.598 53.361 16.001
32.875 53.371 17.485
32.509 51.919 17.248
32.621 50.886 18.14
31.968 51.346 16.044
32.186 49.711 17.569
31.78 49.964 16.285
31.625 51.867 14.789
31.262 49.095 15.314
31.107 51.001 13.822
30.932 49.63 14.093
30.559 49.044 13.375
34.393 53.139 18.925
32.169 48.819 18.018
31.743 52.832 14.581
30.861 51.364 12.932
31.144 48.121 15.521
32.969 50.97 19.072
34.031 55.745 17.799
32.784 53.839 16.617
32.234 53.726 18.151
35.744 51.7 17.519
36.641 50.864 16.733
36.073 49.455 16.838
36.239 48.782 17.854
38.081 50.88 17.286
38.939 49.889 16.515
38.663 52.282 17.169
36.588 51.147 15.79
39.477 50.377 15.827
39.198 52.348 16.327
38.046 50.566 18.226
39.555 49.418 17.146
38.351 49.218 16.062
35.413 51.436 18.476
37.918 52.948 17.147
39.252 52.461 17.957
35.384 49.029 15.785
34.747 47.716 15.741
35.589 46.593 16.334
35.127 45.869 17.218
34.364 47.375 14.3
35.337 49.711 14.995
33.868 47.766 16.258
35.19 47.325 13.742
33.894 46.495 14.283
33.76 48.085 13.942
36.819 46.442 15.851
37.695 45.382 16.345
37.966 45.508 17.845
38.402 44.549 18.483
39.019 45.381 15.583
39.728 46.586 15.796
37.092 47.118 15.12
37.233 44.497 16.189
38.829 45.284 14.61
39.572 44.617 15.902
39.255 47.136 16.484
37.708 46.689 18.399
37.911 46.928 19.824
36.67 46.569 20.645
36.79 46.181 21.803
38.256 48.4 20.089
39.679 48.811 19.747
39.937 50.242 20.214
41.373 50.68 19.955
41.621 52.077 20.426
38.682 46.359 20.145
41.995 50.058 20.436
41.556 50.629 18.971
40.316 48.204 20.209
39.807 48.767 18.763
41.658 52.688 19.637
40.879 52.355 21.034
42.49 52.108 20.918
39.76 50.297 21.193
39.324 50.854 19.721
37.356 47.412 17.742
38.1 48.583 21.065
37.626 48.967 19.55
35.488 46.708 20.047
34.254 46.412 20.762
34.02 47.436 21.86
33.471 47.122 22.92
35.525 47.032 19.069
33.481 46.429 20.12
34.313 45.495 21.168
34.412 48.677 21.585
34.309 49.771 22.547
33.125 50.717 22.366
33.142 51.835 22.892
35.598 50.596 22.494
35.717 51.397 21.21
34.205 49.343 23.474
34.8 48.802 20.622
36.372 49.974 22.554
35.6 51.226 23.263
35.249 50.967 20.155
36.35 52.558 21.29
36.456 53.133 20.48
36.727 52.864 22.168
32.096 50.292 21.639
30.954 51.175 21.418
30.347 51.699 22.717
30.173 52.906 22.884
29.867 50.471 20.601
28.709 51.394 20.198
29.222 52.508 19.281
27.625 50.582 19.498
27.285 49.875 20.118
26.872 51.186 19.237
28.006 50.152 18.68
32.172 49.341 21.268
29.622 52.102 18.46
28.461 53.102 19.025
29.915 53.04 19.764
31.265 51.97 20.87
28.315 51.798 21.018
29.491 49.747 21.15
30.277 50.133 19.772
30.035 50.793 23.637
29.432 51.185 24.909
30.355 52.076 25.729
29.9 52.817 26.603
29.05 49.948 25.714
30.25 49.814 23.382
28.578 51.694 24.718
28.13 50.064 26.086
29.071 49.145 25.12
29.699 49.825 26.463
31.651 52.015 25.446
32.604 52.834 26.185
32.655 54.269 25.679
32.749 55.202 26.473
34 52.209 26.126
34.028 50.806 26.696
33.422 50.591 27.765
34.658 49.918 26.083
31.911 51.366 24.691
32.285 52.87 27.146
34.615 52.782 26.652
34.28 52.174 25.175
32.582 54.448 24.364
32.632 55.785 23.78
31.251 56.399 23.554
31.128 57.607 23.324
33.382 55.773 22.434
34.785 55.223 22.629
32.612 54.941 21.412
33.137 56.389 24.422
34.772 54.228 22.529
32.557 55.447 20.552
33.476 56.714 22.133
35.398 55.617 21.944
35.114 55.46 23.544
32.489 53.581 23.807
33.091 54.076 21.266
31.692 54.764 21.76
30.215 55.567 23.615
28.849 56.035 23.41
27.89 55.198 24.247
27.144 54.373 23.72
28.483 55.943 21.927
30.459 54.579 23.816
28.785 56.99 23.707
29.293 55.688 21.402
27.773 55.252 21.805
28.147 56.829 21.614
27.899 55.406 25.572
27.031 54.669 26.492
25.571 54.648 26.047
25.027 55.667 25.606
27.219 55.419 27.811
28.622 55.913 27.714
28.684 56.422 26.298
28.785 56.647 28.363
27.375 53.723 26.626
29.62 56.449 25.96
28.261 57.318 26.213
29.268 55.172 27.854
27.107 54.804 28.587
26.575 56.177 27.881
24.949 53.477 26.15
23.549 53.339 25.786
23.208 53.354 24.306
22.042 53.182 23.944
25.534 52.699 26.501
23.182 52.464 26.201
23.008 54.085 26.258
24.201 53.552 23.445
23.946 53.586 22.005
24.157 52.238 21.315
24.911 51.391 21.789
24.855 54.62 21.327
24.789 56.017 21.916
23.413 56.644 21.768
23.447 58.09 22.243
22.153 58.798 22.069
22.983 53.878 21.853
23.703 58.103 23.22
24.165 58.582 21.73
25.02 55.972 22.893
25.462 56.601 21.452
22.31 59.669 21.602
21.535 58.233 21.522
21.744 58.969 22.965
22.768 56.144 22.325
23.153 56.631 20.814
25.134 53.675 23.866
24.596 54.671 20.36
25.8 54.292 21.395
23.476 52.06 20.186
23.595 50.86 19.368
23.791 51.335 17.933
23.345 52.423 17.567
22.322 50.005 19.441
22.164 49.396 20.712
22.846 52.859 19.936
24.411 50.373 19.644
22.377 49.292 18.744
21.534 50.591 19.261
21.315 48.871 20.726
24.483 50.541 17.126
24.682 50.9 15.73
23.324 50.737 15.036
22.627 49.741 15.249
25.719 49.965 15.056
27.109 50.212 15.648
25.721 50.18 13.543
27.671 51.584 15.351
24.889 51.867 15.712
26.369 49.544 13.13
24.802 50.011 13.194
25.458 49.03 15.257
27.056 50.09 16.639
27.732 49.522 15.277
27.062 52.281 15.728
24.852 49.681 17.56
28.575 51.67 15.768
25.993 51.12 13.353
27.746 51.705 14.362
22.936 51.72 14.231
21.67 51.627 13.524
21.367 52.806 12.619
21.837 53.92 12.851
23.584 52.515 14.158
21.66 50.768 12.968
20.913 51.526 14.205
20.582 52.559 11.576
20.213 53.627 10.664
20.964 53.641 9.348
20.647 54.431 8.467
20.272 51.58 11.478
19.206 53.57 10.473
20.348 54.53 11.135
21.961 52.776 9.205
22.733 52.719 7.968
21.941 52.039 6.858
21.034 51.253 7.119
24.046 51.961 8.19
25.089 52.798 8.908
25.553 53.795 8.319
25.445 52.459 10.056
22.137 52.166 10.02
22.897 53.669 7.675
24.402 51.698 7.302
23.847 51.158 8.739
22.299 52.351 5.619
21.641 51.781 4.456
21.931 50.284 4.353
23.055 49.839 4.602
22.134 52.487 3.162
21.652 53.942 3.159
21.631 51.744 1.92
22.3 54.799 2.097
20.654 51.868 4.614
21.983 52.204 1.109
21.962 50.805 1.955
23.122 52.488 3.178
20.662 53.944 3.022
21.85 54.336 4.057
22.1 54.419 1.195
23.086 53.034 5.555
21.939 55.729 2.155
20.635 51.759 1.921
23.289 54.815 2.24
20.906 49.51 4.014
21.053 48.064 3.832
20.866 47.865 2.331
19.793 48.131 1.797
19.975 47.303 4.598
20.041 45.811 4.414
21.038 45.066 5.027
19.104 45.154 3.62
21.104 43.682 4.854
19.158 43.78 3.44
20.159 43.038 4.058
20.204 42.05 3.935
21.987 47.842 4.035
21.834 43.16 5.304
18.469 43.321 2.858
20.003 50.01 3.89
18.381 45.684 3.174
21.717 45.515 5.599
19.094 47.611 4.272
20.091 47.496 5.56
21.916 47.418 1.656
21.887 47.235 0.208
20.931 46.181 -0.326
20.456 46.3 -1.453
23.295 46.934 -0.306
24.148 48.049 -0.12
22.754 47.211 2.24
21.622 48.137 -0.212
23.243 46.723 -1.277
23.661 46.158 0.196
23.797 48.617 0.624
20.654 45.148 0.464
19.751 44.094 0.019
20.276 43.535 -1.309
19.507 43.24 -2.225
18.346 44.674 -0.158
17.285 43.607 -0.321
19.803 43.354 0.684
21.118 45.159 1.385
18.346 45.252 -0.971
18.128 45.22 0.648
17.38 42.523 0.267
16.249 43.915 -1.102
15.514 43.255 -1.244
16.21 44.811 -1.546
21.598 43.394 -1.39
22.275 42.89 -2.587
21.725 41.552 -3.074
21.577 41.342 -4.273
23.776 42.72 -2.317
24.472 43.937 -1.737
25.698 43.508 -0.933
26.222 44.577 -0.084
26.899 45.621 -0.544
27.131 45.728 -1.843
27.349 46.551 0.288
23.857 44.415 -1.125
22.165 43.573 -3.331
26.059 44.515 0.905
24.777 44.53 -2.469
27.873 47.325 -0.051
27.158 46.474 1.273
22.114 43.675 -0.524
26.404 43.224 -1.58
25.434 42.732 -0.362
27.666 46.52 -2.187
26.789 45.048 -2.48
24.221 42.49 -3.183
23.89 41.961 -1.675
21.434 40.645 -2.148
20.939 39.328 -2.525
19.429 39.238 -2.716
18.889 38.154 -2.914
21.413 38.279 -1.513
22.937 38.202 -1.414
23.433 36.873 -0.873
23.164 35.837 -1.517
24.092 36.853 0.187
23.307 38.314 -2.318
21.403 39.028 -3.388
23.24 38.906 -0.798
21.585 40.947 -1.172
21.092 37.406 -1.812
21.073 38.536 -0.633
18.759 40.385 -2.654
17.322 40.437 -2.856
16.447 39.57 -1.97
15.399 39.106 -2.411
19.343 41.22 -2.453
17.01 41.424 -2.765
17.118 40.208 -3.849
16.855 39.344 -0.724
16.05 38.529 0.175
14.862 39.322 0.715
13.832 38.749 1.068
16.908 37.992 1.33
17.861 36.89 0.898
18.596 36.273 2.079
19.479 35.113 1.624
20.332 34.563 2.723
15.7 37.731 -0.331
18.89 34.378 1.268
20.074 35.432 0.877
17.34 36.171 0.431
18.535 37.271 0.261
20.121 33.595 2.849
21.293 34.67 2.476
20.142 35.062 3.566
17.932 35.927 2.729
19.173 36.963 2.496
17.751 39.778 -0.466
16.298 37.628 2.025
17.441 38.746 1.695
14.999 40.642 0.771
13.91 41.479 1.261
13.164 42.041 0.055
13.735 42.172 -1.028
14.462 42.611 2.141
15.231 42.191 3.403
15.749 43.43 4.128
14.321 41.394 4.325
13.997 40.575 3.851
14.827 41.124 5.144
13.537 41.956 4.59
15.907 41.007 0.45
14.977 44.01 4.388
16.248 43.151 4.948
16.36 43.939 3.522
13.281 40.914 1.786
15.999 41.617 3.137
13.692 43.171 2.436
15.085 43.154 1.583
11.873 42.371 0.222
11.066 42.913 -0.878
11.749 44.069 -1.599
11.976 45.127 -1.014
9.779 43.348 -0.182
9.66 42.34 0.937
11.083 42.299 1.464
9.036 42.663 1.629
10.821 42.177 -1.533
11.263 41.45 1.949
11.272 43.079 2.049
9.388 41.46 0.583
9.001 43.285 -0.794
9.863 44.268 0.183
12.072 43.848 -2.87
12.727 44.866 -3.674
11.741 45.59 -4.574
10.851 44.981 -5.165
11.82 42.906 -3.226
13.178 45.536 -3.067
13.444 44.436 -4.243
11.903 46.902 -4.687
11.005 47.702 -5.507
11.685 49.029 -5.78
12.24 49.644 -4.872
9.695 47.923 -4.748
8.645 48.743 -5.466
7.415 48.885 -4.581
6.299 49.635 -5.28
5.101 49.755 -4.398
10.849 47.233 -6.372
6.62 50.551 -5.521
6.043 49.143 -6.113
9.008 49.647 -5.659
8.385 48.284 -6.307
4.64 48.87 -4.346
5.391 50.037 -3.485
4.478 50.437 -4.779
7.669 49.385 -3.757
7.087 47.975 -4.34
12.7 47.294 -4.156
9.915 48.381 -3.878
9.303 47.02 -4.539
11.648 49.469 -7.031
12.27 50.731 -7.391
11.744 51.814 -6.466
10.537 51.912 -6.236
11.953 51.079 -8.845
12.338 50.016 -9.699
11.155 48.856 -7.7
13.255 50.649 -7.243
12.458 51.896 -9.097
10.976 51.229 -8.934
12.401 49.17 -9.171
12.658 52.607 -5.917
12.267 53.676 -5.023
12.321 53.289 -3.561
12.457 54.15 -2.695
13.635 52.396 -6.179
12.871 54.483 -5.177
11.321 53.979 -5.253
12.208 51.995 -3.273
12.252 51.542 -1.89
13.682 51.356 -1.434
14.478 50.684 -2.088
11.505 50.222 -1.714
11.648 49.647 -0.309
10.975 48.297 -0.198
9.527 48.409 -0.326
8.769 47.52 -0.959
9.326 46.461 -1.525
7.455 47.687 -1.017
11.221 50.266 0.344
11.812 52.237 -1.308
9.076 49.205 0.088
12.614 49.537 -0.096
6.883 47.034 -1.506
7.031 48.477 -0.564
12.092 51.37 -4.083
11.198 47.91 0.692
11.325 47.713 -0.924
8.742 45.799 -2.021
10.307 46.31 -1.467
11.876 49.564 -2.353
10.543 50.381 -1.884
14.008 51.957 -0.302
15.342 51.844 0.245
15.239 51.165 1.596
14.283 51.376 2.341
15.998 53.229 0.401
15.131 54.086 1.15
16.234 53.851 -0.951
15.891 51.268 -0.357
15.372 54.21 -1.324
16.893 54.607 -0.876
13.244 52.499 0.143
16.869 53.123 0.921
16.601 53.166 -1.589
14.17 53.912 0.907
16.219 50.328 1.897
16.236 49.612 3.156
17.333 50.152 4.05
18.331 50.703 3.573
16.473 48.115 2.922
15.317 47.407 2.278
15.086 47.244 0.938
14.204 46.816 2.953
13.89 46.587 0.741
13.329 46.316 1.962
13.858 46.662 4.303
12.127 45.672 2.28
12.658 46.016 4.619
11.811 45.532 3.607
10.961 45.076 3.872
15.358 49.776 3.617
13.498 46.348 -0.144
14.447 47 5.028
12.409 45.903 5.572
11.529 45.332 1.548
15.691 47.554 0.21
16.954 50.234 1.17
16.638 47.675 3.798
17.258 48.004 2.323
17.125 49.999 5.353
18.09 50.418 6.355
18.034 49.364 7.44
17.043 48.642 7.561
17.722 51.781 6.932
17.998 52.94 5.986
17.575 54.25 6.615
17.827 55.372 5.721
19.03 55.863 5.451
20.117 55.342 6.013
19.15 56.874 4.602
17.48 52.813 5.148
18.994 50.422 5.955
17.032 55.807 5.276
18.971 52.984 5.792
20.05 57.264 4.406
18.337 57.251 4.152
16.21 49.552 5.592
18.095 54.374 7.454
16.602 54.2 6.815
21.019 55.739 5.812
20.04 54.563 6.629
18.255 51.926 7.759
16.75 51.781 7.143
19.091 49.264 8.231
19.117 48.268 9.287
19.529 48.886 10.611
19.994 50.023 10.654
20.083 47.147 8.916
21.515 47.617 8.713
22.501 46.467 8.697
22.55 45.712 9.691
23.228 46.317 7.697
21.57 48.069 7.844
18.204 47.848 9.382
21.756 48.205 9.46
19.856 49.925 8.039
19.777 46.752 8.07
20.086 46.496 9.652
19.344 48.126 11.686
19.706 48.568 13.028
19.932 47.36 13.925
19.265 46.324 13.776
18.606 49.459 13.608
18.921 47.193 11.488
20.558 49.095 12.977
18.876 49.767 14.518
18.472 50.249 13.012
17.757 48.938 13.669
20.877 47.495 14.853
21.206 46.426 15.783
20.14 46.266 16.855
19.65 47.251 17.419
22.543 46.705 16.464
23.724 46.482 15.546
23.539 46.483 14.309
24.845 46.31 16.069
21.353 48.422 14.853
21.226 45.565 15.255
22.624 46.096 17.245
22.544 47.653 16.763
19.793 45.016 17.137
18.796 44.707 18.156
19.44 43.88 19.273
20.336 43.082 19.021
17.62 43.91 17.546
16.849 44.796 16.563
16.689 43.415 18.651
16.11 45.952 17.225
18.53 45.579 18.567
15.951 42.888 18.237
17.211 42.841 19.278
17.999 43.147 17.042
17.493 45.166 15.897
16.183 44.227 16.084
16.769 46.532 17.697
20.284 44.29 16.579
15.635 46.479 16.524
16.318 44.204 19.135
15.451 45.586 17.878
18.978 44.087 20.503
19.48 43.369 21.669
20.942 43.65 22.007
21.59 42.84 22.675
19.291 41.854 21.498
17.832 41.46 21.373
18.928 43.677 22.47
18.223 44.81 20.562
19.678 41.4 22.295
19.77 41.571 20.673
16.978 41.961 22.105
17.54 40.553 20.449
16.596 40.256 20.315
18.269 40.163 19.883
21.462 44.788 21.559
22.852 45.125 21.85
22.942 45.952 23.122
22.164 46.878 23.317
23.484 45.921 20.705
24.901 46.361 21.012
25.961 45.457 20.956
25.171 47.667 21.426
27.262 45.843 21.312
26.459 48.062 21.783
27.498 47.149 21.725
28.771 47.543 22.08
23.36 44.27 21.994
28.008 45.183 21.266
26.629 49.001 22.08
20.826 45.383 21.013
24.427 48.331 21.466
25.799 44.517 20.659
22.935 46.731 20.547
23.504 45.346 19.898
29.412 46.809 21.865
23.886 45.603 23.989
24.095 46.339 25.232
25.534 46.846 25.271
25.77 48.044 25.39
23.823 45.461 26.478
25.062 45.072 27.077
23.051 44.219 26.091
23.483 47.128 25.244
23.611 43.637 25.494
22.802 43.698 26.912
24.451 44.777 23.711
23.298 46.014 27.156
22.212 44.474 25.601
25.836 45.368 26.507
26.496 45.94 25.137
27.898 46.339 25.16
28.82 45.279 24.581
28.421 44.134 24.38
28.324 46.637 26.594
28.201 45.472 27.386
26.175 44.967 25.02
27.993 47.176 24.595
27.735 47.345 26.964
29.271 46.932 26.594
27.241 45.197 27.43
30.063 45.669 24.324
31.027 44.734 23.781
30.919 44.611 22.278
30.516 45.553 21.598
30.268 46.657 24.538
31.964 45.035 24.026
30.887 43.822 24.203
31.283 43.444 21.759
31.226 43.204 20.323
29.772 43.072 19.893
28.915 42.694 20.691
32.016 41.944 19.973
33.48 42.053 20.288
34.302 42.898 19.547
34.027 41.362 21.362
35.648 43.057 19.875
35.373 41.516 21.698
36.183 42.366 20.952
37.146 42.48 21.19
31.588 44.021 19.874
36.222 43.673 19.325
35.752 41.005 22.484
31.602 42.738 22.447
33.453 40.748 21.902
33.929 43.399 18.772
31.922 41.787 19.003
31.644 41.197 20.5
29.5 43.392 18.632
28.141 43.335 18.109
27.618 41.917 17.973
28.389 40.976 17.773
28.078 44.071 16.767
28.338 45.563 16.909
28.499 46.238 15.563
27.268 46.22 14.777
27.217 45.885 13.493
28.327 45.535 12.859
26.064 45.916 12.839
29.177 45.704 17.432
27.53 43.847 18.74
26.412 46.476 15.234
27.57 45.989 17.384
26.024 45.684 11.872
25.222 46.175 13.323
30.321 43.679 18.067
29.217 45.759 15.059
28.774 47.186 15.72
28.281 45.299 11.875
29.197 45.501 13.338
27.173 43.95 16.388
28.77 43.691 16.172
26.3 41.767 18.086
25.673 40.453 17.994
25.192 40.14 16.579
25.598 40.793 15.621
24.505 40.337 18.997
23.416 41.377 18.766
26.38 39.768 18.222
25.772 42.645 18.241
24.872 40.458 19.915
24.105 39.43 18.903
23.193 41.816 17.641
22.716 41.758 19.836
21.99 42.43 19.744
22.927 41.364 20.732
24.33 39.138 16.445
23.821 38.752 15.127
22.368 39.156 14.892
21.742 38.686 13.934
23.933 37.24 14.954
23.119 36.595 15.91
24.057 38.668 17.323
24.39 39.219 14.426
24.876 36.971 15.093
23.625 36.997 14.045
22.33 36.182 15.455
21.833 40.017 15.756
20.439 40.449 15.646
20.275 41.815 14.981
20.918 42.787 15.371
19.793 40.464 17.033
19.816 39.096 17.694
20.13 38.116 16.992
19.514 39 18.902
22.477 40.348 16.498
19.964 39.774 15.054
18.851 40.753 16.931
20.298 41.1 17.601
19.403 41.878 13.978
19.178 43.116 13.243
17.722 43.292 12.852
17.004 42.319 12.608
20.006 43.129 11.953
21.484 42.788 12.118
22.321 44.007 12.467
23.743 43.668 12.492
24.361 43.092 13.518
23.693 42.79 14.626
25.649 42.805 13.431
21.832 42.406 11.263
19.453 43.895 13.829
24.292 43.887 11.675
21.588 42.117 12.851
26.128 42.388 14.204
26.153 43.003 12.586
18.91 40.989 13.771
22.043 44.327 13.364
22.161 44.701 11.778
24.18 42.371 15.401
22.716 42.975 14.691
19.945 44.044 11.553
19.606 42.465 11.32
17.288 44.544 12.801
15.943 44.846 12.366
16.176 45.547 11.036
17.124 46.329 10.891
15.188 45.756 13.381
13.742 45.953 12.916
15.896 47.086 13.546
12.798 46.36 14.021
15.515 43.992 12.157
15.41 47.633 14.227
16.834 46.922 13.849
15.174 45.286 14.251
13.734 46.653 12.204
13.423 45.092 12.52
13.103 47.225 14.418
17.978 45.259 13.092
11.877 46.47 13.649
15.902 47.564 12.669
12.789 45.654 14.728
15.346 45.227 10.052
15.467 45.805 8.723
14.172 46.511 8.399
13.092 45.91 8.475
15.713 44.717 7.672
16.976 43.857 7.713
18.188 44.747 7.646
16.991 42.999 8.966
16.19 42.4 8.973
17.822 42.441 8.982
16.972 43.586 9.776
14.611 44.536 10.311
18.193 45.379 8.425
19.023 44.192 7.672
18.177 45.278 6.795
16.206 46.475 8.731
16.967 43.236 6.934
15.69 45.167 6.761
14.92 44.08 7.706
14.272 47.781 8.026
13.078 48.544 7.712
13.25 49.311 6.414
14.327 49.841 6.122
12.738 49.502 8.857
13.842 50.474 9.208
14.948 50.068 9.957
13.775 51.803 8.804
15.958 50.973 10.296
14.783 52.716 9.136
15.866 52.294 9.881
16.853 53.196 10.214
12.31 47.901 7.597
16.743 50.666 10.834
14.713 53.664 8.833
15.229 48.156 7.982
12.995 52.117 8.266
15.022 49.119 10.257
12.533 48.957 9.669
11.93 50.028 8.594
17.504 52.756 10.829
12.173 49.355 5.638
12.174 50.02 4.346
11.622 51.431 4.444
11.092 51.832 5.479
11.323 49.225 3.36
9.954 49.307 3.717
11.335 48.875 6.034
13.13 50.082 4.026
11.607 48.274 3.384
11.444 49.604 2.451
9.422 49.617 2.93
11.738 52.169 3.344
11.252 53.54 3.279
9.728 53.589 3.338
9.159 54.62 3.7
11.772 54.23 2.008
11.542 53.437 0.861
12.2 51.687 2.545
11.607 54.038 4.08
12.752 54.383 2.109
11.3 55.101 1.905
10.856 52.74 1.068
9.061 52.488 2.979
7.603 52.458 3.075
7.159 51.662 4.302
6.031 51.185 4.394
6.947 51.944 1.781
7.474 50.603 1.329
8.572 50.187 1.754
6.778 49.968 0.513
9.636 51.709 2.648
7.294 53.404 3.212
7.118 52.618 1.068
5.967 51.868 1.95
8.087 51.533 5.245
7.871 50.891 6.539
7.537 49.412 6.671
6.752 49.012 7.534
6.874 51.74 7.331
7.288 53.177 7.25
6.699 54.158 6.505
8.488 53.75 7.787
7.463 55.301 6.533
8.567 55.078 7.313
9.509 53.266 8.618
9.627 55.929 7.64
10.564 54.11 8.944
10.614 55.43 8.454
11.389 56.006 8.711
8.746 51.054 7.103
7.249 56.155 6.062
9.483 52.335 8.972
11.292 53.775 9.53
9.651 56.867 7.284
5.837 54.062 6.009
9.023 51.946 4.973
6.902 51.475 8.268
5.993 51.662 6.924
8.143 48.601 5.815
7.984 47.158 5.909
9.052 46.858 6.95
10.114 47.485 6.938
8.351 46.489 4.591
7.504 46.89 3.385
8.068 46.215 2.141
6.054 46.498 3.611
5.703 46.962 4.425
5.506 46.764 2.817
5.99 45.508 3.741
8.721 49.071 5.097
8.041 45.222 2.258
7.52 46.471 1.345
9.014 46.508 2.002
7.119 46.957 6.286
7.542 47.875 3.273
8.256 45.506 4.707
9.296 46.722 4.38
8.792 45.934 7.859
9.79 45.652 8.874
10.058 44.163 8.992
9.136 43.362 9.158
9.353 46.246 10.241
9.131 47.758 10.081
10.415 45.967 11.313
8.777 48.489 11.356
10.648 46.075 8.555
10.101 46.348 12.178
10.535 44.981 11.392
8.492 45.833 10.488
9.967 48.157 9.697
8.391 47.892 9.416
9.515 48.376 12.019
7.886 45.469 7.786
8.652 49.46 11.158
11.268 46.399 11.034
7.931 48.112 11.73
11.331 43.805 8.885
11.764 42.419 8.988
12.837 42.33 10.057
13.393 43.347 10.484
12.37 41.924 7.665
11.38 41.627 6.572
10.641 42.644 5.979
11.188 40.316 6.118
9.733 42.377 4.956
10.281 40.034 5.095
9.557 41.069 4.52
8.663 40.808 3.512
10.985 41.865 9.277
9.213 43.121 4.538
10.155 39.096 4.782
11.991 44.598 8.722
11.708 39.574 6.531
10.759 43.59 6.29
12.887 41.086 7.859
13.005 42.628 7.336
8.36 41.67 3.109
13.136 41.108 10.483
14.174 40.912 11.478
14.997 39.692 11.104
14.57 38.871 10.297
13.562 40.713 12.871
12.814 39.391 13.062
12.415 39.2 14.522
11.689 37.873 14.745
11.376 37.644 16.201
14.773 41.714 11.491
10.833 37.879 14.227
12.268 37.125 14.418
11.991 39.401 12.501
13.408 38.641 12.788
11.088 36.698 16.324
12.195 37.825 16.739
10.644 38.262 16.474
11.807 39.94 14.79
13.236 39.208 15.084
12.586 40.346 10.06
12.919 41.461 13.039
14.3 40.752 13.545
16.199 39.611 11.666
17.078 38.477 11.471
17.814 38.282 12.787
18.216 39.255 13.435
18.123 38.694 10.35
18.912 37.507 10.214
19.048 39.874 10.67
16.532 37.67 11.295
19.977 39.663 10.364
18.72 40.694 10.198
16.45 40.437 12.259
17.631 38.855 9.474
19.052 40.037 11.658
18.388 36.79 9.742
17.958 37.028 13.193
18.67 36.707 14.416
19.825 35.768 14.076
20.532 35.294 14.965
17.734 36.057 15.464
17.059 34.932 14.886
16.703 37.063 15.945
19.052 37.546 14.799
16.732 37.13 16.946
16.896 37.965 15.551
17.527 36.315 12.573
18.301 35.723 16.244
15.785 36.772 15.663
17.061 35.001 13.883
20.014 35.503 12.783
21.102 34.636 12.345
22.043 35.326 11.357
22.489 34.739 10.372
20.57 33.328 11.745
19.617 33.545 10.581
19.596 34.65 9.991
18.896 32.584 10.247
19.342 35.953 12.141
21.652 34.408 13.164
20.09 32.835 12.463
21.35 32.799 11.425
22.346 36.583 11.648
23.252 37.39 10.834
22.913 37.39 9.344
23.741 37.045 8.497
24.699 36.925 11.036
25.713 38.013 10.852
21.881 36.951 12.511
23.207 38.351 11.167
24.9 36.191 10.378
24.796 36.556 11.966
25.688 39.325 11.193
27.264 36.916 9.914
28.551 39.04 9.895
27.632 38.923 10.258
26.943 37.794 10.271
26.893 39.868 10.811
24.939 39.807 11.638
21.681 37.782 9.041
21.189 37.892 7.672
21.01 36.611 6.854
20.838 36.691 5.645
22.072 38.859 6.866
22.519 40.108 7.611
23.795 40.183 8.175
21.687 41.224 7.719
24.234 41.343 8.824
22.114 42.387 8.368
23.392 42.438 8.916
23.839 43.58 9.542
20.267 38.368 7.707
25.153 41.375 9.216
21.506 43.173 8.437
21.086 38.008 9.876
20.771 41.194 7.326
24.409 39.396 8.117
21.557 39.15 6.057
22.891 38.362 6.574
23.153 44.298 9.441
21.052 35.436 7.475
20.853 34.206 6.702
19.366 34.059 6.367
18.996 33.747 5.232
21.339 32.979 7.486
22.826 33.014 7.824
23.286 31.797 8.602
23.346 33.063 6.97
21.352 34.297 5.842
23.009 33.832 8.371
21.225 35.463 8.481
21.164 32.16 6.939
20.827 32.923 8.343
23.554 32.945 10.246
23.342 30.689 8.067
23.616 31.998 9.879
23.921 31.225 10.466
18.516 34.294 7.362
17.074 34.202 7.173
16.409 35.419 7.8
16.914 35.987 8.77
16.495 32.913 7.811
16.735 32.916 9.22
17.153 31.675 7.2
16.879 34.205 6.192
16.464 30.961 7.063
17.564 31.913 6.318
18.961 34.544 8.266
15.486 32.9 7.656
17.865 31.334 7.816
17.716 32.797 9.41
15.276 35.821 7.235
14.546 36.986 7.722
13.104 36.623 8.05
12.542 35.704 7.462
14.542 38.078 6.653
15.905 38.618 6.324
16.427 39.704 7.025
16.675 38.033 5.323
17.701 40.195 6.732
17.954 38.516 5.02
18.466 39.597 5.726
19.376 39.951 5.522
14.98 37.264 8.586
18.062 40.978 7.246
18.492 38.075 4.29
14.961 35.244 6.43
16.313 37.255 4.81
15.892 40.136 7.742
13.989 38.828 6.987
14.158 37.692 5.826
12.516 37.347 8.996
11.129 37.138 9.377
10.426 38.49 9.282
10.882 39.476 9.856
10.996 36.624 10.831
11.665 35.363 10.966
9.533 36.467 11.206
10.705 36.519 8.727
9.106 37.37 11.303
9.051 35.952 10.492
13.129 38.067 9.434
11.447 37.293 11.456
9.454 35.973 12.076
12.657 35.501 11.05
9.329 38.546 8.539
8.573 39.786 8.425
7.821 39.976 9.746
7.144 39.056 10.202
7.576 39.681 7.265
6.619 40.864 7.13
5.677 40.647 5.947
4.636 41.753 5.823
5.246 43.071 5.444
9.2 40.544 8.305
3.965 41.493 5.123
4.162 41.856 6.702
6.08 40.942 7.961
7.144 41.692 6.976
4.634 43.543 4.814
5.374 43.619 6.268
6.126 42.908 5.004
5.203 39.778 6.07
6.217 40.624 5.109
9.068 37.667 8.067
7.031 38.852 7.397
8.096 39.602 6.413
7.953 41.138 10.388
7.216 41.348 11.632
6.196 42.483 11.533
5.348 42.637 12.407
8.15 41.552 12.865
9.094 42.737 12.647
8.903 40.248 13.149
10.084 42.965 13.817
6.688 40.502 11.794
9.451 40.369 13.972
8.238 39.518 13.281
7.571 41.753 13.647
9.623 42.582 11.82
8.552 43.564 12.542
10.638 42.147 13.922
8.575 41.821 9.958
10.655 43.747 13.596
9.49 40.043 12.37
9.559 43.139 14.642
6.264 43.262 10.459
5.278 44.317 10.233
5.06 44.444 8.726
6.04 44.24 7.973
5.747 45.659 10.802
5.969 45.686 12.314
4.674 45.65 13.127
4.961 45.835 14.549
5.526 44.914 15.325
5.854 43.728 14.821
5.792 45.184 16.598
3.922 44.756 8.315
4.418 44.055 10.659
4.715 46.717 14.967
6.523 44.893 12.582
6.464 46.524 12.561
6.197 44.492 17.186
5.583 46.094 16.969
7.049 43.064 9.818
4.25 44.767 12.987
4.093 46.383 12.809
6.265 43.032 15.425
5.699 43.527 13.86
5.058 46.35 10.582
6.612 45.9 10.362
