132.048 40.148 48.645
131.57 38.741 48.493
131.798 38.254 47.062
131.577 38.988 46.096
130.082 38.65 48.849
129.667 37.32 49.474
129.632 36.193 48.461
129.58 34.831 49.15
130.876 34.472 49.808
132.092 38.165 49.123
129.871 39.378 49.498
129.553 38.781 48.012
130.321 37.087 50.2
128.755 37.424 49.879
128.821 36.289 47.895
130.453 36.23 47.903
128.854 34.847 49.844
129.356 34.13 48.466
131.589 34.467 49.102
131.09 35.151 50.501
130.806 33.579 50.22
131.284 40.763 48.479
132.393 40.27 49.571
132.667 40.418 47.882
132.242 37.01 46.934
132.517 36.425 45.63
131.633 35.207 45.367
131.423 34.387 46.257
133.997 36.023 45.557
134.407 35.251 44.307
134.384 36.122 43.066
134.918 35.375 41.846
136.339 34.937 41.999
132.384 36.481 47.775
132.334 37.114 44.915
134.548 36.86 45.603
134.203 35.455 46.358
135.335 34.894 44.438
133.776 34.483 44.179
133.446 36.397 42.879
134.955 36.922 43.218
134.341 34.564 41.685
134.846 35.977 41.04
136.894 35.758 42.164
136.411 34.319 42.772
136.642 34.488 41.176
131.119 35.098 44.143
130.277 33.972 43.75
130.735 33.379 42.41
130.908 34.103 41.428
128.836 34.414 43.655
131.334 35.829 43.488
130.343 33.254 44.453
128.524 34.757 44.542
128.749 35.144 42.973
128.263 33.63 43.38
130.927 32.062 42.373
131.36 31.39 41.149
130.349 30.363 40.64
129.785 29.58 41.413
132.714 30.656 41.341
133.101 29.929 40.047
133.807 31.652 41.737
130.765 31.546 43.212
131.474 32.095 40.429
132.583 29.961 42.034
132.418 29.247 39.813
133.174 30.599 39.304
133.989 29.48 40.172
133.917 32.332 41.018
133.545 32.103 42.59
134.668 31.166 41.87
130.121 30.376 39.332
129.21 29.426 38.705
129.966 28.725 37.593
130.505 29.381 36.705
127.966 30.117 38.068
127.07 30.711 39.154
127.176 29.108 37.218
125.919 31.53 38.609
130.599 31.066 38.785
129.006 28.738 39.393
128.297 30.857 37.495
126.704 29.965 39.706
127.631 31.296 39.737
126.86 28.37 37.808
126.403 29.579 36.807
127.758 28.742 36.51
125.332 30.94 38.056
125.393 31.912 39.367
126.275 32.271 38.043
130.048 27.401 37.661
130.705 26.652 36.593
129.551 26.212 35.704
128.852 25.237 35.998
131.469 25.44 37.136
132.667 25.838 37.985
129.656 26.944 38.447
131.242 27.289 36.076
130.848 24.902 37.697
131.793 24.901 36.365
132.67 25.649 39.207
133.686 26.401 37.345
133.633 26.547 36.355
134.503 26.679 37.847
129.345 26.972 34.633
128.266 26.705 33.701
128.14 25.294 33.166
127.029 24.781 33.061
129.97 27.745 34.492
127.369 26.973 34.146
128.35 27.358 32.9
129.256 24.661 32.822
129.197 23.314 32.272
128.655 22.291 33.268
128.331 21.168 32.892
130.578 22.878 31.751
131.548 22.32 32.789
131.989 23.35 33.812
131.786 24.563 33.574
132.555 22.942 34.85
130.121 25.131 32.95
128.613 23.311 31.441
130.429 22.17 31.072
131.006 23.673 31.341
131.093 21.594 33.273
132.353 22.003 32.319
128.539 22.68 34.533
128.02 21.772 35.548
126.537 21.995 35.817
125.9 21.192 36.494
128.828 21.912 36.845
130.18 21.21 36.776
131.166 21.708 37.813
128.817 23.608 34.764
128.132 20.826 35.206
128.988 22.879 37.02
128.307 21.509 37.592
130.036 20.228 36.916
130.57 21.359 35.865
130.935 21.601 39.018
132.28 22.257 37.344
132.534 22.386 38.297
132.904 22.566 36.617
125.984 23.078 35.279
124.565 23.365 35.474
123.744 22.486 34.538
123.801 22.65 33.321
124.232 24.846 35.174
125.107 25.77 36.025
122.763 25.113 35.462
124.925 25.593 37.516
126.563 23.683 34.743
124.345 23.076 36.404
124.44 25.016 34.218
126.064 25.6 35.792
124.886 26.716 35.785
122.574 24.947 36.428
122.555 26.063 35.233
122.198 24.505 34.902
125.182 24.658 37.764
125.507 26.241 38.003
123.971 25.752 37.757
122.983 21.557 35.106
122.172 20.651 34.298
120.7 21.057 34.298
119.93 20.599 33.454
122.296 19.215 34.82
123.722 18.763 35.133
124.539 18.388 33.893
124.054 17.17 33.246
124.785 16.396 32.447
126.049 16.702 32.191
124.247 15.315 31.897
122.984 21.498 36.101
122.51 20.673 33.347
121.76 19.141 35.659
121.925 18.598 34.128
124.208 19.502 35.609
123.69 17.959 35.734
124.484 19.149 33.25
125.486 18.256 34.181
123.098 16.897 33.417
126.479 17.5 32.605
126.586 16.119 31.569
123.295 15.076 32.103
124.784 14.741 31.283
120.314 21.914 35.241
118.927 22.365 35.338
118.8 23.732 36.005
119.723 24.2 36.671
118.119 21.367 36.152
118.547 21.394 37.501
121.006 22.24 35.883
118.559 22.444 34.398
117.16 21.616 36.112
118.264 20.457 35.785
117.828 21.005 38.066
117.639 24.358 35.834
117.379 25.658 36.436
117.445 25.47 37.95
117.792 26.388 38.694
115.982 26.194 36.031
115.78 27.609 36.586
114.888 25.264 36.552
116.843 28.602 36.144
116.946 23.902 35.274
118.142 26.241 36.191
115.952 26.243 35.041
114.886 27.94 36.29
115.788 27.557 37.584
114.931 25.232 37.548
114.002 25.614 36.258
115.024 24.35 36.183
116.811 28.681 35.148
116.66 29.489 36.561
117.738 28.279 36.424
117.113 24.261 38.39
117.15 23.906 39.8
118.602 23.922 40.277
118.897 24.39 41.381
116.556 22.51 40.003
116.903 21.992 41.276
116.828 23.585 37.699
116.652 24.603 40.314
115.565 22.57 39.936
116.913 21.905 39.298
117.889 21.878 41.309
119.499 23.394 39.443
120.927 23.365 39.758
121.413 24.794 39.943
122.164 25.1 40.868
121.732 22.733 38.61
121.891 21.232 38.749
122.506 20.615 37.85
121.41 20.663 39.75
119.157 23.012 38.581
121.026 22.902 40.637
121.253 22.929 37.76
122.633 23.153 38.604
120.973 25.664 39.043
121.373 27.06 39.065
120.978 27.786 40.347
121.793 28.483 40.932
120.8 27.776 37.836
121.216 29.226 37.566
122.728 29.408 37.747
120.79 29.589 36.144
120.346 25.319 38.337
122.385 27.108 38.974
121.058 27.239 37.024
119.797 27.766 37.918
120.735 29.828 38.204
122.971 29.162 38.685
123.209 28.814 37.108
122.973 30.353 37.575
121.241 28.976 35.496
119.799 29.494 36.06
121.053 30.533 35.948
119.741 27.618 40.793
119.296 28.291 42.009
119.999 27.772 43.266
120.291 28.542 44.189
117.78 28.16 42.17
116.996 29.124 41.335
116.207 28.722 40.276
116.876 30.472 41.405
115.635 29.782 39.732
116.025 30.856 40.397
119.131 27.026 40.279
119.502 29.279 41.921
117.504 27.225 41.917
117.54 28.311 43.136
117.321 31.073 42.062
115.017 29.774 38.951
115.743 31.796 40.199
120.266 26.471 43.304
120.937 25.877 44.454
122.407 26.27 44.484
123 26.415 45.554
120.76 24.355 44.435
119.314 23.958 44.738
119.074 22.463 44.726
119.973 21.689 44.387
117.864 22.044 45.097
119.993 25.916 42.523
120.504 26.239 45.287
120.991 24.015 43.535
121.342 23.954 45.129
119.072 24.315 45.645
118.719 24.386 44.052
118.206 21.13 44.935
116.917 22.177 45.41
122.994 26.461 43.309
124.383 26.887 43.239
124.445 28.325 43.746
125.35 28.693 44.495
124.918 26.837 41.801
124.851 25.492 41.318
126.362 27.292 41.755
122.458 26.304 42.487
124.926 26.317 43.845
124.326 27.418 41.208
126.469 28.238 42.052
126.928 26.702 42.352
126.708 27.206 40.787
123.902 25.284 41.124
123.466 29.134 43.349
123.43 30.523 43.773
123.197 30.605 45.274
123.795 31.436 45.955
122.332 31.285 43.024
122.526 31.542 41.523
121.226 32.059 40.93
123.646 32.543 41.295
122.763 28.755 42.753
124.316 30.947 43.566
121.477 30.768 43.126
122.225 32.179 43.465
122.779 30.689 41.081
120.501 31.383 41.047
120.962 32.91 41.391
121.357 32.241 39.948
123.41 33.398 41.769
124.499 32.183 41.664
123.746 32.718 40.318
122.329 29.737 45.784
122.026 29.701 47.211
123.319 29.589 48
123.546 30.335 48.95
121.13 28.503 47.534
120.7 28.412 48.991
119.725 27.261 49.214
119.157 27.287 50.635
118.091 26.259 50.851
121.884 29.101 45.149
121.562 30.552 47.466
120.308 28.567 46.968
121.63 27.669 47.301
121.508 28.264 49.562
120.255 29.267 49.255
118.972 27.347 48.574
120.203 26.402 49.083
119.907 27.124 51.285
118.773 28.199 50.813
117.357 26.435 50.189
118.473 25.355 50.701
117.738 26.33 51.769
124.164 28.649 47.588
125.447 28.417 48.235
126.444 29.553 48.016
127.011 30.093 48.961
126.082 27.123 47.713
127.439 26.826 48.342
127.29 26.607 49.844
128.636 26.541 50.552
129.295 27.873 50.683
123.88 28.092 46.798
125.296 28.312 49.235
125.469 26.369 47.921
126.204 27.211 46.731
127.814 26.001 47.932
128.046 27.598 48.187
126.766 27.364 50.228
126.808 25.748 49.997
128.5 26.15 51.472
129.245 25.924 50.037
129.418 28.247 49.758
128.714 28.477 51.216
130.173 27.771 51.123
126.662 29.889 46.75
127.611 30.923 46.373
127.311 32.321 46.908
128.231 33.117 47.094
127.723 30.969 44.85
128.314 29.709 44.242
129.748 29.471 44.678
130.576 30.404 44.552
130.05 28.35 45.135
126.138 29.393 46.047
128.553 30.646 46.679
126.816 31.079 44.486
128.313 31.719 44.615
127.781 28.941 44.543
128.314 29.806 43.265
126.038 32.623 47.157
125.658 33.946 47.652
125.261 33.951 49.13
124.874 34.991 49.675
124.5 34.508 46.816
124.719 34.702 45.311
123.474 35.328 44.688
125.925 35.592 45.078
125.352 31.918 46.995
126.45 34.571 47.535
123.718 33.886 46.923
124.256 35.403 47.198
124.889 33.816 44.891
122.689 34.727 44.825
123.296 36.213 45.12
123.624 35.461 43.707
125.766 36.479 45.522
126.739 35.167 45.47
126.056 35.728 44.094
125.35 32.792 49.775
124.995 32.681 51.181
123.55 33.125 51.381
123.235 33.895 52.29
125.931 33.531 52.022
125.67 31.998 49.259
125.077 31.723 51.464
126.873 33.219 51.898
125.86 34.489 51.739
125.677 33.45 52.989
122.668 32.628 50.524
121.262 32.984 50.611
120.6 32.319 51.812
121.059 31.286 52.294
120.541 32.586 49.319
121.137 33.222 48.059
120.29 32.873 46.842
121.214 34.74 48.243
123.002 32.005 49.821
121.187 33.983 50.722
120.611 31.608 49.219
119.605 32.883 49.388
122.064 32.876 47.929
120.266 31.881 46.724
119.359 33.215 46.974
120.688 33.297 46.026
120.29 35.09 48.408
121.797 34.949 49.024
121.588 35.158 47.423
119.511 32.914 52.315
118.801 32.349 53.466
118.349 30.919 53.182
118.125 30.552 52.028
117.619 33.3 53.643
117.367 33.781 52.237
118.767 34.049 51.745
119.375 32.384 54.292
116.824 32.819 53.998
117.857 34.06 54.238
116.929 33.073 51.702
116.826 34.609 52.247
118.812 34.036 50.752
119.117 34.912 52.096
118.215 30.12 54.236
117.785 28.739 54.089
116.408 28.645 53.443
116.086 27.65 52.798
117.76 28.041 55.454
117.782 28.981 56.668
116.538 29.861 56.802
115.414 29.312 56.839
116.689 31.101 56.888
118.422 30.504 55.136
118.454 28.232 53.525
116.928 27.513 55.508
118.56 27.466 55.514
117.841 28.427 57.481
118.559 29.581 56.577
115.598 29.685 53.615
114.258 29.693 53.052
114.212 30.122 51.574
113.14 30.129 50.965
113.347 30.605 53.891
113.764 32.067 53.922
114.22 32.657 55.101
113.703 32.862 52.77
114.61 34.006 55.139
114.087 34.211 52.794
114.543 34.775 53.984
114.954 36.091 54.014
115.942 30.459 54.144
113.879 28.751 53.108
112.423 30.553 53.514
113.346 30.264 54.83
114.273 32.115 55.94
113.382 32.463 51.916
114.934 34.405 55.995
114.033 34.76 51.965
115.174 36.391 53.086
115.368 30.461 51.001
115.446 30.91 49.603
114.395 30.249 48.706
114.349 29.023 48.578
116.853 30.665 49.041
117.037 31.127 47.609
116.626 32.401 47.208
117.603 30.284 46.647
116.765 32.828 45.887
117.75 30.7 45.325
117.327 31.976 44.952
117.473 32.403 43.649
116.197 30.4 51.562
115.287 31.91 49.586
117.506 31.155 49.613
117.036 29.686 49.077
116.222 33.023 47.882
117.906 29.373 46.912
116.461 33.742 45.622
118.155 30.09 44.648
116.583 32.679 43.288
113.556 31.082 48.091
112.484 30.596 47.234
112.872 29.92 45.931
112.03 29.301 45.285
113.691 32.064 48.241
111.892 29.944 47.782
111.847 31.387 47.021
114.133 30.042 45.533
114.611 29.422 44.297
113.757 29.791 43.087
113.303 28.924 42.335
114.664 27.899 44.459
115.771 27.435 45.401
115.727 25.943 45.674
114.725 25.471 46.24
116.693 25.24 45.325
114.753 30.576 46.109
115.57 29.703 44.128
113.81 27.609 44.84
114.841 27.51 43.578
116.636 27.636 44.979
115.658 27.899 46.26
113.544 31.089 42.915
112.767 31.614 41.801
113.282 33.015 41.5
114.09 33.56 42.256
111.276 31.643 42.151
110.967 32.546 43.326
113.946 31.714 43.596
112.969 31.051 41.006
110.774 31.971 41.355
110.99 30.715 42.377
110.969 33.772 43.199
110.704 31.944 44.485
110.725 30.945 44.541
110.488 32.487 45.294
112.816 33.598 40.404
113.273 34.921 40.01
112.934 36.018 41.014
113.742 36.917 41.228
112.721 35.276 38.628
113.045 34.255 37.531
112.525 34.761 36.194
114.542 34.017 37.462
112.144 33.1 39.86
114.286 34.893 39.902
111.736 35.333 38.697
113.113 36.14 38.354
112.605 33.391 37.754
111.535 34.883 36.236
112.958 35.639 35.977
112.749 34.094 35.475
114.999 34.892 37.269
114.867 33.659 38.334
114.745 33.365 36.732
111.751 35.945 41.629
111.332 36.947 42.611
112.158 36.861 43.898
112.503 37.89 44.49
109.838 36.8 42.941
108.928 37.219 41.781
109.129 38.32 41.222
107.998 36.453 41.437
111.156 35.177 41.394
111.512 37.853 42.207
109.661 35.847 43.15
109.637 37.376 43.722
112.475 35.635 44.321
113.276 35.412 45.528
114.721 35.84 45.291
115.401 36.298 46.205
113.232 33.934 45.931
112.142 34.861 43.779
112.895 35.965 46.274
112.283 33.674 46.106
113.601 33.38 45.188
113.772 33.796 46.751
115.191 35.677 44.06
116.554 36.059 43.714
116.698 37.579 43.77
117.668 38.103 44.321
116.907 35.557 42.316
118.297 35.959 41.827
119.357 35.57 42.875
118.571 35.272 40.495
114.578 35.282 43.377
117.182 35.658 44.384
116.871 34.567 42.328
116.248 35.931 41.68
118.326 36.944 41.688
119.159 36.043 43.73
119.326 34.583 43.018
120.257 35.831 42.551
118.524 34.279 40.621
117.886 35.556 39.826
119.483 35.525 40.17
115.729 38.281 43.187
115.728 39.738 43.196
115.691 40.23 44.641
116.419 41.153 45.019
114.51 40.265 42.429
114.189 41.717 42.679
113.282 42.209 43.572
114.795 42.858 42.049
113.285 43.586 43.539
114.205 44.01 42.615
115.783 43.017 41.06
114.567 45.313 42.229
116.147 44.317 40.671
115.537 45.445 41.259
114.995 37.769 42.738
116.588 40.049 42.794
114.676 40.167 41.452
113.708 39.738 42.695
112.699 41.656 44.164
112.709 44.181 44.098
116.222 42.232 40.639
114.125 46.105 42.654
116.84 44.434 39.975
115.821 46.353 40.959
114.849 39.595 45.447
114.707 39.97 46.843
116.007 39.731 47.604
116.352 40.496 48.509
113.571 39.178 47.494
113.31 39.604 48.929
112.965 40.787 49.153
113.444 38.757 49.836
114.312 38.845 45.057
114.528 40.96 46.873
112.747 39.329 46.962
113.821 38.218 47.487
116.727 38.674 47.238
117.99 38.359 47.899
119.085 39.326 47.469
119.898 39.759 48.281
118.412 36.929 47.582
116.376 38.105 46.499
117.863 38.439 48.895
117.705 36.298 47.901
118.528 36.827 46.594
119.274 36.725 48.042
119.1 39.669 46.187
120.113 40.572 45.658
119.92 42.023 46.083
120.831 42.83 45.956
120.13 40.507 44.13
120.466 39.177 43.441
120.494 39.399 41.925
121.807 38.642 43.924
118.392 39.286 45.595
121.024 40.263 45.99
119.217 40.785 43.802
120.8 41.185 43.802
119.767 38.511 43.662
119.602 39.709 41.61
121.185 40.09 41.706
120.728 38.541 41.468
122.511 39.332 43.722
121.769 38.482 44.905
122.021 37.795 43.449
118.742 42.354 46.589
118.453 43.727 46.97
118.104 43.932 48.436
117.889 45.06 48.865
117.289 44.281 46.134
116.129 43.459 46.335
117.653 44.296 44.66
118.061 41.633 46.7
119.278 44.298 46.758
117.069 45.222 46.456
118.431 44.89 44.472
117.881 43.359 44.354
116.843 44.629 44.12
116.293 42.589 45.891
118.036 42.85 49.201
117.704 42.982 50.604
118.263 41.856 51.442
117.656 41.459 52.433
118.216 41.969 48.786
118.06 43.868 50.952
116.693 43.009 50.71
119.415 41.326 51.045
120.033 40.244 51.8
121.519 40.075 51.523
122.33 40.146 52.444
119.315 38.92 51.529
119.972 37.753 52.202
121.126 37.122 51.82
119.543 37.108 53.409
121.44 36.126 52.716
120.487 36.096 53.701
118.453 37.288 54.273
120.373 35.266 54.822
118.339 36.46 55.391
119.295 35.462 55.652
119.838 41.689 50.221
119.93 40.462 52.789
118.39 38.979 51.875
119.323 38.743 50.555
121.662 37.35 51.01
122.233 35.522 52.659
117.77 37.99 54.101
121.061 34.558 54.999
117.57 36.582 56.006
119.179 34.888 56.462
121.869 39.856 50.259
123.258 39.647 49.87
124.193 40.77 50.314
123.778 41.919 50.486
123.392 39.463 48.323
123.127 40.776 47.601
124.775 38.96 47.977
121.136 39.839 49.574
123.581 38.786 50.306
122.687 38.822 48.043
122.202 41.096 47.788
123.786 41.467 47.912
123.237 40.638 46.609
125.468 39.617 48.269
124.939 38.082 48.436
124.841 38.829 46.977
125.462 40.415 50.502
126.496 41.359 50.911
127.107 42.024 49.687
127.149 41.432 48.614
127.604 40.628 51.68
128.886 41.436 51.841
130.043 40.627 52.416
131.145 41.202 52.572
129.86 39.424 52.709
125.691 39.443 50.348
126.098 42.059 51.51
127.261 40.43 52.581
127.827 39.812 51.179
129.163 41.756 50.952
128.709 42.178 52.462
127.58 43.252 49.857
128.221 43.989 48.774
129.599 44.463 49.244
129.856 44.554 50.442
127.407 45.22 48.378
125.95 44.983 48.065
125.552 44.098 47.061
124.965 45.703 48.734
124.204 43.944 46.731
123.627 45.563 48.414
123.25 44.688 47.415
121.913 44.591 47.11
127.481 43.664 50.767
128.354 43.37 48.002
127.46 45.885 49.133
127.837 45.63 47.564
126.239 43.566 46.569
125.233 46.335 49.463
123.931 43.308 46.015
122.934 46.094 48.904
121.734 43.711 46.67
130.509 44.746 48.302
130.242 44.615 46.867
130.187 43.137 46.517
130.74 42.304 47.238
131.425 45.337 46.228
132.526 45.097 47.207
131.842 45.326 48.539
129.394 45.076 46.618
131.644 44.942 45.339
131.237 46.31 46.131
132.864 44.165 47.14
133.266 45.747 47.075
132.31 44.846 49.272
131.773 46.296 48.748
129.507 42.809 45.427
129.381 41.42 45.013
129.957 41.206 43.623
129.814 42.049 42.738
127.907 40.997 45.039
127.525 39.68 44.345
128.278 38.509 44.954
126.027 39.466 44.465
129.085 43.545 44.901
129.893 40.843 45.662
127.63 40.914 45.999
127.373 41.725 44.605
127.749 39.753 43.373
129.263 38.658 44.851
128.054 38.435 45.926
128.017 37.663 44.485
125.777 39.43 45.436
125.543 40.222 44.026
125.775 38.603 44.022
130.616 40.071 43.441
131.203 39.736 42.155
130.72 38.366 41.722
130.982 37.366 42.39
132.739 39.716 42.219
133.31 39.222 40.89
133.257 41.105 42.538
130.696 39.45 44.222
130.886 40.406 41.48
133.007 39.056 42.91
133.008 38.295 40.699
133.004 39.831 40.152
134.317 39.24 40.934
132.991 41.751 41.827
132.881 41.408 43.418
134.265 41.078 42.602
130.007 38.328 40.603
129.497 37.075 40.069
130.35 36.676 38.868
130.417 37.41 37.878
128.044 37.246 39.615
127.164 36.001 39.414
126.164 36.294 38.304
127.995 34.787 39.049
129.831 39.196 40.136
129.584 36.367 40.766
127.577 37.827 40.297
128.054 37.742 38.737
126.681 35.81 40.256
125.577 37.059 38.554
126.659 36.518 37.459
125.594 35.476 38.145
128.504 35 38.205
128.638 34.585 39.781
127.398 34.005 38.894
131.02 35.53 38.963
131.83 35.04 37.855
131.084 33.86 37.246
131.014 32.789 37.843
133.206 34.582 38.331
134.109 34.156 37.174
135.426 33.568 37.628
136.209 33.137 36.753
135.681 33.536 38.852
130.949 35.02 39.816
131.942 35.752 37.175
133.638 35.335 38.778
133.084 33.805 38.91
133.634 33.467 36.656
134.307 34.954 36.632
130.522 34.057 36.061
129.754 33.001 35.411
130.53 32.365 34.261
130.536 32.886 33.149
128.433 33.571 34.885
127.361 32.547 34.623
127.529 31.286 34.114
125.948 32.728 34.78
126.31 30.677 33.942
125.322 31.538 34.343
125.148 33.781 35.245
123.936 31.372 34.357
123.766 33.615 35.258
123.176 32.418 34.816
130.64 34.948 35.629
129.582 32.28 36.095
128.068 34.212 35.556
128.605 34.042 34.023
128.411 30.87 33.899
126.165 29.756 33.583
125.553 34.633 35.562
123.526 30.513 34.039
123.192 34.357 35.585
122.18 32.338 34.841
131.172 31.232 34.535
131.941 30.524 33.519
131.048 29.628 32.663
130.013 29.138 33.126
133.015 29.674 34.186
133.945 30.465 35.075
134.77 29.536 35.933
135.74 30.264 36.74
136.49 29.706 37.684
136.377 28.407 37.938
137.353 30.445 38.372
131.109 30.88 35.47
132.387 31.2 32.917
132.565 28.982 34.742
133.558 29.241 33.473
134.563 31.006 34.515
133.414 31.054 35.674
134.153 29.034 36.534
135.252 28.902 35.333
135.849 31.25 36.573
135.753 27.831 37.42
136.936 27.995 38.67
137.447 31.421 38.159
137.904 30.034 39.093
131.452 29.421 31.413
130.694 28.571 30.504
129.211 28.923 30.549
128.36 28.046 30.711
130.882 27.102 30.894
132.33 26.653 30.947
133.017 26.766 29.605
134.075 27.388 29.487
132.42 26.168 28.579
132.294 29.869 31.118
131.022 28.744 29.569
130.476 26.957 31.799
130.401 26.529 30.225
132.819 27.224 31.606
132.36 25.699 31.243
133.178 26.5 28.032
131.689 25.629 28.143
128.91 30.212 30.421
127.531 30.69 30.448
126.7 30.057 29.336
125.561 29.65 29.565
127.5 32.216 30.311
126.121 32.791 30.236
125.298 32.806 31.355
125.636 33.304 29.038
124.006 33.323 31.288
124.346 33.823 28.957
123.529 33.831 30.088
129.672 30.854 30.304
127.13 30.383 31.32
127.952 32.597 31.104
127.98 32.452 29.478
125.631 32.444 32.222
126.218 33.302 28.226
123.429 33.323 32.11
124.007 34.19 28.08
122.604 34.202 30.034
127.265 29.983 28.134
126.555 29.393 27.002
126.113 27.968 27.312
124.945 27.626 27.143
127.436 29.38 25.748
127.868 30.752 25.248
126.703 31.714 25.08
125.621 31.272 24.629
126.877 32.916 25.389
128.189 30.344 28.03
125.748 29.954 26.78
128.255 28.87 25.963
126.921 28.948 25.025
128.481 31.142 25.909
128.29 30.642 24.367
127.045 27.137 27.769
126.723 25.751 28.094
125.617 25.605 29.132
124.826 24.665 29.067
127.972 25.01 28.568
128.915 24.629 27.44
130.028 23.71 27.9
127.97 27.491 27.882
126.406 25.298 27.24
128.471 25.596 29.207
127.691 24.171 29.036
128.391 24.163 26.727
129.322 25.462 27.066
130.904 24.11 28.668
129.996 22.464 27.436
130.819 22.318 27.971
129.614 21.709 26.892
125.556 26.525 30.09
124.515 26.462 31.112
123.201 26.952 30.515
122.121 26.567 30.958
124.886 27.324 32.324
124.877 28.704 32.006
126.235 27.249 30.088
124.396 25.506 31.378
124.225 27.153 33.052
125.8 27.067 32.63
125.193 28.812 31.07
123.307 27.8 29.499
122.137 28.35 28.828
121.365 27.224 28.148
120.162 27.332 27.916
122.569 29.384 27.785
121.432 30.211 27.204
121.934 31.13 26.099
120.821 32.015 25.549
120.358 33.033 26.535
124.233 28.054 29.205
121.542 28.782 29.508
123.222 30.007 28.216
123.02 28.899 27.035
120.742 29.597 26.824
121.028 30.767 27.928
122.65 31.715 26.467
122.292 30.575 25.355
121.158 32.484 24.725
120.043 31.433 25.288
120.03 32.549 27.351
121.118 33.626 26.778
119.623 33.568 26.144
122.065 26.139 27.842
121.452 24.995 27.184
120.555 24.193 28.117
119.334 24.172 27.965
122.532 24.068 26.626
123.516 24.736 25.684
124.479 23.743 25.061
124.57 23.633 23.837
125.206 23.015 25.903
123.039 26.134 28.081
120.875 25.343 26.427
123.05 23.68 27.395
122.084 23.317 26.129
123.007 25.186 24.953
124.043 25.413 26.195
125.603 22.603 25.093
125.507 22.715 26.815
121.175 23.537 29.089
120.465 22.69 30.036
119.503 23.397 30.995
119.128 22.832 32.027
121.486 21.871 30.83
122.528 21.152 29.964
123.451 20.322 30.84
121.825 20.266 28.945
122.175 23.646 29.151
119.923 21.996 29.504
121.974 22.487 31.429
120.997 21.181 31.339
123.061 21.834 29.469
123.926 20.915 31.489
122.914 19.643 31.344
124.125 19.851 30.262
121.258 19.598 29.434
121.246 20.826 28.357
122.504 19.788 28.392
119.098 24.62 30.663
118.171 25.362 31.517
117.183 26.157 30.679
116.29 26.816 31.218
118.905 26.361 32.436
119.527 27.376 31.637
119.96 25.65 33.273
119.445 25.014 29.817
117.657 24.702 32.076
118.221 26.809 33.045
119.555 24.966 33.874
120.626 25.195 32.665
120.455 26.342 33.842
120.429 27.054 31.383
117.351 26.084 29.361
116.505 26.81 28.418
116.867 28.284 28.511
118.043 28.65 28.509
115.02 26.625 28.752
114.463 25.234 28.481
115.161 24.146 29.275
116.327 23.827 28.955
114.543 23.613 30.224
118.1 25.497 29.027
116.669 26.481 27.494
114.906 26.809 29.716
114.507 27.264 28.2
113.513 25.228 28.738
114.588 25.032 27.526
115.847 29.128 28.594
116.05 30.563 28.711
116.216 30.913 30.194
116.337 32.085 30.56
114.846 31.304 28.117
114.704 31.088 26.614
114.922 28.739 28.573
116.914 30.783 28.265
114.02 30.972 28.562
114.961 32.278 28.286
113.669 31.41 26.025
115.751 30.552 25.985
116.569 30.311 26.51
115.718 30.393 25.003
116.228 29.882 31.037
116.371 30.078 32.468
117.614 30.857 32.844
117.549 31.822 33.6
116.134 28.966 30.646
115.551 30.565 32.824
116.392 29.171 32.931
118.757 30.436 32.319
120.008 31.116 32.609
119.869 32.598 32.259
120.277 33.467 33.02
121.144 30.481 31.811
118.729 29.638 31.72
120.205 31.038 33.587
121.227 29.517 32.061
120.945 30.556 30.834
121.999 30.953 32.015
119.265 32.875 31.111
119.076 34.247 30.657
118.168 35.037 31.596
118.41 36.213 31.857
118.495 34.249 29.239
118.515 35.603 28.554
119.921 36.153 28.412
120.84 35.369 28.096
120.106 37.369 28.605
118.94 32.103 30.56
119.973 34.71 30.592
119.036 33.629 28.695
117.556 33.958 29.301
118.145 35.499 27.652
118.003 36.236 29.101
117.122 34.396 32.103
116.209 35.073 33.013
116.906 35.361 34.348
116.675 36.403 34.97
114.947 34.226 33.238
115.261 32.982 33.842
116.983 33.446 31.843
115.954 35.954 32.607
114.328 34.73 33.833
114.515 34.059 32.356
116.196 32.746 33.603
117.761 34.445 34.789
118.48 34.657 36.039
119.472 35.793 35.866
119.599 36.656 36.738
119.227 33.388 36.484
120.239 33.718 37.575
118.226 32.374 37.008
117.892 33.625 34.248
117.817 34.926 36.74
119.743 33.049 35.703
120.919 34.363 37.239
119.761 34.12 38.362
120.7 32.87 37.868
117.741 32.733 37.8
117.564 32.155 36.285
118.716 31.53 37.273
120.17 35.793 34.735
121.148 36.834 34.45
120.486 38.202 34.431
121.055 39.185 34.904
121.819 36.585 33.1
122.665 37.753 32.581
123.812 38.044 33.553
123.194 37.412 31.192
120.001 35.053 34.085
121.845 36.827 35.175
122.42 35.804 33.195
121.111 36.413 32.432
122.089 38.562 32.501
123.436 38.284 34.446
124.386 37.231 33.638
124.358 38.802 33.206
123.75 36.58 31.251
122.428 37.258 30.572
123.754 38.165 30.853
119.277 38.259 33.883
118.544 39.511 33.802
118.194 40.068 35.182
118.105 41.284 35.349
117.275 39.328 32.958
116.529 40.63 32.651
115.652 41.108 33.802
115.483 40.41 34.807
115.098 42.307 33.663
118.889 37.409 33.527
119.134 40.191 33.34
117.527 38.905 32.086
116.646 38.722 33.45
117.202 41.342 32.448
115.95 40.482 31.849
114.701 42.148 34.557
114.905 43.166 33.176
117.985 39.2 36.172
117.669 39.699 37.509
118.918 40.365 38.105
118.82 41.381 38.796
117.167 38.574 38.455
116.855 39.15 39.82
115.904 37.926 37.885
118.048 38.237 35.978
116.961 40.398 37.425
117.912 37.929 38.567
117.667 39.546 40.239
116.15 39.865 39.732
116.499 38.41 40.42
115.184 38.609 37.8
116.11 37.541 36.985
115.6 37.197 38.495
120.088 39.793 37.822
121.359 40.341 38.299
121.607 41.705 37.656
122.007 42.655 38.322
122.513 39.398 37.944
122.738 38.31 38.956
123.531 38.542 40.076
122.141 37.058 38.802
123.726 37.545 41.03
122.329 36.062 39.747
123.123 36.304 40.863
120.07 38.96 37.262
121.259 40.499 39.282
122.299 38.972 37.078
123.338 39.939 37.887
123.965 39.428 40.203
121.571 36.882 38
124.302 37.73 41.831
121.888 35.159 39.621
123.261 35.588 41.546
121.37 41.793 36.352
121.556 43.053 35.646
120.534 44.068 36.136
120.833 45.251 36.248
121.418 42.846 34.133
122.538 42.001 33.541
123.121 42.674 32.316
122.336 42.428 31.117
122.213 43.289 30.116
122.818 44.468 30.17
121.496 42.961 29.052
121.063 40.974 35.876
122.475 43.403 35.84
120.558 42.385 33.96
121.437 43.734 33.695
123.26 41.892 34.214
122.176 41.117 33.27
123.159 43.658 32.491
124.049 42.324 32.182
121.853 41.546 31.041
123.388 44.72 30.947
122.701 45.122 29.412
121.065 42.057 28.998
121.383 43.611 28.301
119.327 43.596 36.434
118.262 44.463 36.925
118.622 44.971 38.32
118.33 46.114 38.669
116.952 43.702 36.966
119.172 42.613 36.308
118.174 45.25 36.312
116.716 43.384 36.047
117.04 42.911 37.575
116.225 44.307 37.308
119.256 44.116 39.117
119.663 44.51 40.462
120.748 45.574 40.332
120.737 46.574 41.042
120.187 43.306 41.234
119.443 43.203 38.768
118.882 44.906 40.935
119.467 42.614 41.296
120.977 42.922 40.756
120.457 43.59 42.152
121.681 45.361 39.411
122.744 46.329 39.196
122.133 47.678 38.821
122.53 48.715 39.346
123.69 45.861 38.082
124.587 46.976 37.548
126.055 46.798 37.911
126.788 45.985 36.855
126.193 44.628 36.706
121.628 44.522 38.878
123.266 46.439 40.043
124.27 45.142 38.447
123.139 45.516 37.331
124.503 47.006 36.544
124.266 47.856 37.918
126.481 47.693 37.975
126.116 46.319 38.779
126.734 46.466 35.979
127.749 45.895 37.122
126.249 44.152 37.585
125.238 44.714 36.431
126.697 44.116 36.016
121.163 47.658 37.914
120.504 48.886 37.477
119.806 49.59 38.637
119.674 50.812 38.644
119.494 48.574 36.376
120.897 46.771 37.537
121.2 49.509 37.096
119.967 48.159 35.6
118.807 47.938 36.727
119.049 49.417 36.083
119.363 48.809 39.614
118.668 49.341 40.782
119.651 50.045 41.716
119.249 50.788 42.608
117.973 48.197 41.531
116.956 48.612 42.594
115.707 49.24 42.003
115.382 48.936 40.831
115.043 50.025 42.715
119.524 47.82 39.523
117.961 49.993 40.489
117.492 47.648 40.86
118.675 47.665 41.985
116.682 47.806 43.085
117.378 49.28 43.178
120.942 49.799 41.509
121.953 50.42 42.343
122.821 49.446 43.126
123.823 49.848 43.72
121.185 49.18 40.769
122.558 51.006 41.759
121.5 51.061 43.001
122.449 48.169 43.143
123.239 47.177 43.867
124.645 47.101 43.271
124.807 47.09 42.051
122.561 45.818 43.798
121.624 47.915 42.652
123.314 47.458 44.826
121.651 45.876 44.209
122.475 45.535 42.842
123.11 45.145 44.297
125.661 47.061 44.132
127.047 46.994 43.667
127.407 45.56 43.292
128.012 44.824 44.08
127.994 47.514 44.751
129.436 47.598 44.282
130.249 48.237 44.98
129.77 47.026 43.225
125.446 47.079 45.106
127.105 47.542 42.828
127.691 48.423 45.014
127.946 46.894 45.525
127.026 45.179 42.075
127.266 43.842 41.552
128.075 43.905 40.268
127.741 44.66 39.353
125.935 43.127 41.223
125.085 42.997 42.484
126.21 41.753 40.597
123.668 42.514 42.21
126.55 45.87 41.511
127.838 43.372 42.231
125.442 43.69 40.572
125.528 42.355 43.103
125.035 43.89 42.925
126.712 41.194 41.252
125.339 41.326 40.374
126.747 41.864 39.773
123.71 41.603 41.805
123.16 42.481 43.068
123.219 43.138 41.58
129.134 43.107 40.204
129.981 43.038 39.025
129.76 41.665 38.4
129.985 40.642 39.047
131.473 43.195 39.385
131.689 44.487 39.972
132.344 43.059 38.137
129.333 42.543 41.013
129.688 43.729 38.376
131.72 42.487 40.075
132.251 42.16 37.721
132.078 43.761 37.462
133.321 43.206 38.396
130.901 44.701 40.533
129.314 41.648 37.146
129.048 40.393 36.45
130.105 40.06 35.405
130.344 40.839 34.487
127.664 40.439 35.77
126.588 40.701 36.824
127.382 39.123 35.047
125.251 41.073 36.261
129.166 42.528 36.695
129.096 39.666 37.151
127.663 41.196 35.132
126.493 39.876 37.385
126.911 41.443 37.417
127.377 38.379 35.712
126.495 39.188 34.597
128.089 38.958 34.368
124.906 40.317 35.7
124.606 41.254 37.004
125.345 41.897 35.691
130.737 38.899 35.555
131.758 38.434 34.619
131.174 37.247 33.854
130.941 36.194 34.442
133.013 37.892 35.338
133.458 38.829 36.471
134.122 37.665 34.311
134.114 40.096 36.016
130.484 38.339 36.352
131.885 39.162 33.957
132.778 37.012 35.742
132.649 39.052 37.023
134.097 38.319 37.055
134.365 38.53 33.882
134.916 37.278 34.777
133.803 37.026 33.614
133.461 40.621 35.463
134.39 40.641 36.807
134.921 39.875 35.461
130.937 37.41 32.556
130.396 36.327 31.735
131.534 35.748 30.91
131.857 36.259 29.841
129.298 36.859 30.817
128.107 37.49 31.544
127.223 38.207 30.538
127.323 36.417 32.292
131.141 38.303 32.155
130.044 35.617 32.336
129.694 37.557 30.237
128.952 36.103 30.281
128.446 38.142 32.215
127.737 38.931 30.081
126.895 37.552 29.853
126.433 38.61 31.016
127.006 35.733 31.629
127.914 35.981 32.965
126.54 36.83 32.747
132.135 34.676 31.412
133.274 34.056 30.744
133.055 32.608 30.328
133.829 31.75 30.794
134.499 34.135 31.66
134.244 33.487 32.9
132.134 32.341 29.537
131.779 34.304 32.271
133.47 34.595 29.899
135.264 33.686 31.213
134.709 35.091 31.833
133.262 33.39 33.003
