47.58 45.712 11.489
47.885 45.369 10.07
47.413 43.944 9.792
48.218 43.018 9.687
49.391 45.468 9.816
49.778 45.885 8.396
48.973 44.94 7.083
47.844 46.175 6.413
48.187 46.491 5.529
46.939 45.767 6.296
47.785 46.946 7.045
47.733 44.906 12.056
48.182 46.453 11.778
49.578 46.895 8.295
50.807 45.821 8.313
46.627 46 11.554
47.367 45.992 9.493
49.816 44.57 10.006
49.79 46.138 10.46
46.099 43.78 9.684
45.495 42.479 9.418
45.8 42.032 7.99
45.816 42.838 7.062
43.979 42.563 9.622
43.227 41.244 9.453
43.574 40.255 10.553
42.73 38.992 10.458
42.993 38.038 11.585
45.879 41.803 10.055
41.758 39.247 10.469
42.93 38.529 9.588
42.244 41.427 9.479
43.468 40.845 8.568
42.872 37.104 11.256
43.928 38.165 11.908
42.35 38.223 12.325
43.406 40.681 11.436
44.533 40.002 10.469
45.542 44.653 9.805
43.611 43.219 8.959
43.807 42.903 10.549
46.046 40.741 7.823
46.344 40.18 6.514
45.438 38.985 6.25
45.179 38.181 7.147
47.813 39.743 6.457
48.199 38.92 5.225
48.036 39.699 3.933
48.567 38.909 2.746
50.018 38.584 2.879
46.172 40.876 5.812
48.046 38.053 2.665
48.428 39.447 1.908
49.157 38.635 5.317
47.619 38.102 5.19
50.244 37.829 2.265
50.559 39.388 2.638
50.211 38.319 3.823
48.546 40.549 4
47.071 39.881 3.785
46.008 40.173 8.694
48.007 39.193 7.271
48.384 40.565 6.472
44.947 38.872 5.023
44.09 37.752 4.661
44.499 37.215 3.296
44.727 37.98 2.364
42.633 38.188 4.642
45.218 39.625 4.368
44.203 37.023 5.339
42.042 37.385 4.72
42.458 38.804 5.41
42.437 38.663 3.784
44.605 35.895 3.189
44.982 35.266 1.93
43.952 34.251 1.459
43.474 33.425 2.236
46.328 34.532 2.038
46.722 33.976 0.672
47.397 35.47 2.561
45.05 35.991 1.225
46.586 34.679 -0.024
47.935 35.823 1.794
46.204 33.754 2.641
47.683 33.704 0.689
46.154 33.182 0.461
44.401 35.367 4.057
46.964 36.232 3.044
47.997 34.974 3.19
43.617 34.321 0.175
42.674 33.389 -0.426
43.376 32.685 -1.587
43.803 33.33 -2.543
41.421 34.112 -0.986
40.693 34.857 0.134
40.483 33.093 -1.639
39.563 35.758 -0.363
42.49 32.691 0.258
39.698 33.578 -2.017
40.979 32.622 -2.364
41.731 34.779 -1.653
40.312 34.189 0.767
41.355 35.423 0.62
38.89 35.2 -0.841
44.081 35.088 -0.354
39.139 36.207 0.419
40.185 32.443 -0.945
39.942 36.44 -0.983
43.515 31.367 -1.49
44.143 30.59 -2.552
43.002 30.136 -3.446
42.41 29.08 -3.225
44.881 29.382 -1.976
46.025 29.779 -1.068
44.7 31.21 -3.081
43.147 30.951 -0.615
45.245 28.846 -2.733
44.232 28.837 -1.452
46.069 29.392 0.101
46.959 30.559 -1.599
47.743 30.851 -1.052
46.879 30.857 -2.552
42.695 30.963 -4.442
41.605 30.695 -5.361
41.463 29.288 -5.903
40.349 28.774 -6.004
43.301 31.81 -4.501
40.712 30.966 -4.904
41.677 31.353 -6.162
42.579 28.661 -6.255
42.529 27.318 -6.812
42.069 26.273 -5.805
41.797 25.133 -6.173
43.896 26.928 -7.394
44.95 26.466 -6.39
45.344 27.533 -5.386
45.158 28.731 -5.681
45.856 27.17 -4.304
44.579 25.704 -5.886
41.905 27.307 -7.614
45.761 26.213 -6.891
43.451 29.192 -6.104
44.26 27.723 -7.861
43.747 26.183 -8.032
41.973 26.661 -4.537
41.537 25.733 -3.501
40.065 25.93 -3.142
39.484 25.124 -2.42
42.412 25.89 -2.253
43.885 25.616 -2.521
44.759 25.784 -1.294
43.98 24.675 -2.854
41.641 24.794 -3.859
44.204 26.249 -3.23
42.227 27.646 -4.358
42.097 25.247 -1.558
42.325 26.824 -1.916
43.115 25.886 -0.124
45.986 25.802 -1.396
44.135 25.901 -0.126
44.659 26.003 0.74
39.47 27.003 -3.652
38.065 27.297 -3.392
37.204 26.421 -4.299
37.273 26.526 -5.52
37.749 28.785 -3.675
38.638 29.678 -2.807
36.278 29.077 -3.4
38.413 29.5 -1.317
37.883 27.003 -2.457
36.094 30.034 -3.613
35.719 28.485 -3.976
37.963 28.965 -4.626
39.592 29.474 -3.016
38.454 30.63 -3.046
38.605 28.553 -1.066
40.081 27.603 -4.241
39.024 30.111 -0.817
36.088 28.897 -2.437
37.464 29.72 -1.099
36.398 25.55 -3.702
35.544 24.67 -4.486
34.06 25.003 -4.389
33.222 24.248 -4.875
35.793 23.211 -4.089
37.068 22.63 -4.695
37.425 21.278 -4.088
38.579 20.665 -4.746
38.544 20.097 -5.949
37.409 20.057 -6.634
39.646 19.57 -6.471
37.828 23.255 -4.528
35.823 24.732 -5.465
39.458 20.673 -4.255
36.941 22.506 -5.677
39.62 19.128 -7.361
40.511 19.619 -5.963
36.431 25.554 -2.67
36.634 20.679 -4.185
37.632 21.418 -3.123
37.392 19.606 -7.538
36.581 20.467 -6.266
35.027 22.666 -4.405
35.874 23.166 -3.102
33.738 26.135 -3.767
32.348 26.574 -3.639
32.245 27.92 -2.929
33.196 28.376 -2.294
31.521 25.538 -2.879
31.87 25.513 -1.511
34.543 26.669 -3.388
31.97 26.684 -4.568
31.691 24.64 -3.275
30.556 25.772 -2.966
32.864 25.572 -1.417
31.083 28.553 -3.042
30.854 29.847 -2.415
30.969 29.73 -0.896
31.484 30.634 -0.233
29.459 30.405 -2.782
29.338 31.855 -2.311
28.369 29.549 -2.16
30.306 32.794 -2.993
31.603 30.443 -2.712
27.478 29.909 -2.432
28.47 28.609 -2.483
29.377 30.392 -3.77
28.406 32.166 -2.484
29.507 31.878 -1.327
30.14 32.784 -3.978
30.367 28.054 -3.605
30.174 33.72 -2.641
28.459 29.579 -1.166
31.242 32.497 -2.809
30.495 28.612 -0.35
30.557 28.384 1.09
32.015 28.156 1.486
32.416 28.397 2.625
29.715 27.163 1.47
30.216 25.991 0.855
30.089 27.936 -1.021
30.239 29.209 1.552
28.779 27.314 1.168
29.743 27.05 2.458
31.184 26.114 0.641
32.799 27.681 0.527
34.216 27.431 0.743
34.865 28.802 0.902
35.723 29.012 1.758
34.808 26.727 -0.478
35.752 25.608 -0.107
35.269 24.496 0.204
36.978 25.845 -0.121
32.319 27.505 -0.38
34.308 26.964 1.61
35.304 27.404 -1.011
34.056 26.351 -1.009
34.429 29.738 0.07
34.962 31.089 0.1
34.621 31.795 1.412
35.474 32.463 1.998
34.428 31.882 -1.098
34.933 33.305 -1.331
36.457 33.338 -1.279
34.429 33.798 -2.693
33.431 33.788 -2.698
34.757 34.728 -2.848
34.774 33.195 -3.41
33.69 29.426 -0.59
36.827 32.739 -1.989
36.775 34.273 -1.433
36.766 33.024 -0.382
35.966 31.044 0.019
34.566 33.902 -0.621
33.425 31.933 -1.005
34.639 31.352 -1.93
33.382 31.641 1.878
32.953 32.279 3.124
33.644 31.7 4.352
33.965 32.434 5.287
31.43 32.179 3.29
30.664 32.968 2.276
32.766 31.047 1.297
33.18 33.265 3.068
31.182 32.512 4.205
31.158 31.215 3.214
29.903 32.576 1.226
31.147 34.933 2.904
29.79 35.72 0.977
29.949 34.769 1.226
30.67 34.347 2.249
29.473 33.714 0.588
29.693 31.638 0.965
33.87 30.389 4.356
34.539 29.75 5.482
35.989 30.214 5.528
36.572 30.355 6.604
34.482 28.224 5.356
33.083 27.643 5.529
33.05 26.128 5.414
32.739 27.901 6.433
34.093 30.055 6.323
32.487 28.029 4.824
33.54 29.883 3.519
35.074 27.821 6.056
34.816 27.964 4.45
35.067 26.084 5.307
31.98 25.52 5.417
34.224 25.51 5.315
34.278 24.497 5.248
36.568 30.453 4.356
37.947 30.917 4.275
38.04 32.341 4.813
38.951 32.67 5.573
38.466 30.899 2.826
38.513 29.547 2.352
39.862 31.502 2.754
38.519 30.326 4.847
40.404 31.2 3.542
40.317 31.207 1.91
35.969 30.285 3.528
37.816 31.42 2.237
39.801 32.503 2.761
37.595 29.241 2.078
37.093 33.187 4.415
37.075 34.572 4.879
36.819 34.632 6.38
37.354 35.491 7.075
35.988 35.363 4.156
36.158 35.583 2.651
34.983 36.405 2.129
37.472 36.296 2.377
38.232 35.741 2.716
37.578 36.437 1.392
37.476 37.182 2.841
36.392 32.789 3.768
34.961 37.288 2.597
35.09 36.551 1.146
34.13 35.913 2.303
37.973 34.984 4.693
36.174 34.702 2.193
35.931 36.267 4.583
35.119 34.881 4.287
35.981 33.725 6.872
35.664 33.683 8.291
36.956 33.482 9.072
37.197 34.156 10.066
34.69 32.538 8.578
34.278 32.419 10.036
33.195 31.369 10.217
32.758 31.279 11.672
31.725 30.228 11.871
35.256 34.553 8.562
33.558 31.067 12.238
32.385 32.166 11.954
35.075 32.159 10.58
33.93 33.301 10.351
31.293 30.352 12.764
31.034 30.301 11.152
32.156 29.327 11.83
33.551 30.485 9.939
32.408 31.619 9.665
35.586 33.07 6.174
35.127 31.682 8.303
33.868 32.684 8.03
37.795 32.564 8.603
39.064 32.291 9.266
40.063 33.435 9.108
40.551 33.996 10.094
39.698 31.012 8.711
41.108 30.766 9.237
41.086 30.527 10.743
42.476 30.577 11.347
43.059 31.948 11.273
38.892 32.149 10.255
42.426 30.294 12.308
43.072 29.941 10.851
41.487 29.961 8.789
41.672 31.564 9.045
44.025 31.883 11.027
42.571 32.477 10.58
42.968 32.394 12.162
40.693 29.628 10.918
40.526 31.233 11.17
37.476 32.074 7.749
39.742 31.09 7.721
39.128 30.242 8.973
40.364 33.765 7.857
41.324 34.816 7.533
41.025 36.185 8.134
41.942 36.954 8.41
41.446 34.95 6.011
42.036 33.722 5.325
43.48 33.464 5.739
44.299 34.398 5.634
43.796 32.329 6.162
41.509 32.939 5.589
42.26 34.518 7.83
42.03 33.876 4.357
39.859 33.212 7.13
42.041 35.709 5.823
40.542 35.086 5.649
39.75 36.499 8.335
39.392 37.804 8.883
38.893 37.75 10.324
38.387 38.746 10.847
38.34 38.469 7.992
38.749 38.69 6.527
37.547 39.167 5.727
39.885 39.706 6.447
40.673 39.366 6.96
40.143 39.842 5.491
39.583 40.575 6.838
39.067 35.773 8.081
37.209 40.028 6.11
37.814 39.311 4.773
36.822 38.478 5.768
40.216 38.4 8.855
39.08 37.829 6.153
38.13 39.36 8.377
37.532 37.891 7.987
39.051 36.595 10.966
38.611 36.422 12.346
37.186 36.943 12.498
36.891 37.74 13.387
39.548 37.164 13.296
39.505 35.845 10.41
38.621 35.445 12.57
40.383 36.631 13.422
39.776 38.056 12.908
39.096 37.289 14.178
36.303 36.487 11.616
34.909 36.913 11.646
34.172 36.296 12.835
34.606 35.283 13.385
34.221 36.525 10.331
34.855 37.126 9.067
33.984 36.83 7.846
35.002 38.634 9.235
35.586 38.827 10.023
35.415 39.023 8.412
34.101 39.043 9.381
36.684 35.818 10.921
33.078 37.23 7.98
34.408 37.226 7.033
33.899 35.841 7.731
34.88 37.914 11.742
35.757 36.723 8.935
33.285 36.841 10.371
34.264 35.54 10.243
33.047 36.909 13.253
32.274 36.39 14.386
31.86 34.947 14.161
31.667 34.514 13.022
31.08 37.338 14.457
30.909 37.776 13.036
32.339 38.029 12.612
30.501 37.056 12.492
32.796 36.486 15.245
32.67 38.901 12.958
32.435 37.989 11.624
30.373 38.607 12.986
31.277 38.116 15.049
30.266 36.862 14.783
31.724 34.197 15.246
31.341 32.798 15.13
29.957 32.643 14.496
29.659 31.626 13.869
31.374 32.132 16.508
31.275 30.615 16.455
32.279 29.993 15.486
33.466 30.387 15.514
31.878 29.103 14.701
31.472 30.26 17.348
32.02 32.303 14.569
30.377 30.372 16.142
31.906 34.674 16.141
30.604 32.464 17.02
32.231 32.36 16.93
29.117 33.658 14.647
27.771 33.615 14.076
27.736 34.075 12.612
26.659 34.176 12.016
26.824 34.487 14.908
27.241 35.939 14.984
27.212 36.755 13.85
27.699 36.491 16.182
27.631 38.073 13.905
28.12 37.811 16.249
28.084 38.596 15.108
28.501 39.902 15.167
27.444 32.658 14.107
27.607 38.647 13.086
28.447 38.193 17.112
29.484 34.46 15.187
27.722 35.924 17.003
26.882 36.377 12.983
26.798 34.121 15.834
25.918 34.443 14.497
28.039 40.428 14.454
28.907 34.351 12.041
29.011 34.822 10.654
27.998 34.157 9.727
27.982 32.938 9.59
30.426 34.589 10.118
30.632 35.079 8.698
30.393 36.41 8.358
31.084 34.215 7.699
30.601 36.873 7.059
31.294 34.668 6.394
31.048 36 6.086
31.239 36.456 4.802
28.835 35.82 10.649
30.427 37.834 6.838
31.617 34.04 5.692
29.735 34.206 12.654
31.261 33.26 7.918
30.065 37.048 9.057
30.611 33.61 10.137
31.068 35.07 10.709
30.364 36.756 4.427
27.177 34.977 9.072
26.135 34.465 8.194
26.54 33.83 6.879
25.73 33.15 6.248
27.344 35.986 9.24
25.56 33.781 8.73
25.463 35.236 7.997
27.779 34.049 6.456
28.263 33.473 5.208
27.374 33.857 4.017
26.911 33.003 3.26
28.363 31.949 5.346
29.369 31.513 6.415
29.498 30.004 6.55
29.371 29.292 5.532
29.749 29.533 7.676
30.253 31.867 6.163
29.207 33.787 5.03
29.065 31.865 7.283
28.355 34.648 7.074
28.668 31.589 4.49
27.485 31.614 5.614
27.138 35.158 3.879
26.348 35.72 2.788
26.865 37.145 2.602
27.665 37.623 3.417
24.843 35.696 3.116
24.495 36.469 4.375
26.577 35.22 1.969
27.572 35.752 4.628
24.568 34.745 3.237
24.352 36.098 2.347
24.543 37.697 4.396
24.133 35.747 5.433
23.887 36.199 6.288
24.108 34.748 5.37
26.423 37.826 1.548
26.915 39.175 1.279
26.573 40.223 2.333
27.411 41.074 2.656
26.442 39.64 -0.101
26.893 38.723 -1.247
26.431 39.291 -2.58
28.406 38.578 -1.236
28.699 38.182 -0.365
28.692 37.979 -1.985
28.83 39.477 -1.35
25.732 37.338 0.963
26.827 40.201 -2.712
26.728 38.689 -3.322
25.433 39.359 -2.587
27.936 39.131 1.195
26.494 37.82 -1.113
26.82 40.532 -0.27
25.457 39.649 -0.1
25.353 40.177 2.865
24.95 41.138 3.888
25.82 40.964 5.142
26.221 41.942 5.779
23.469 40.95 4.234
24.742 39.43 2.503
25.086 42.066 3.536
23.377 40.204 4.891
23.114 41.794 4.632
22.962 40.731 3.403
26.1 39.713 5.489
26.925 39.389 6.652
28.355 39.878 6.428
29.001 40.387 7.337
26.927 37.882 6.886
25.685 38.986 4.867
26.55 39.856 7.456
27.748 37.483 6.48
26.918 37.698 7.868
26.116 37.479 6.463
28.845 39.706 5.209
30.193 40.125 4.871
30.305 41.638 4.942
31.281 42.167 5.47
30.562 39.644 3.47
31.973 40.022 3.02
32.995 39.459 4.007
32.223 39.467 1.622
31.555 39.852 0.986
33.145 39.713 1.326
32.133 38.472 1.637
28.196 39.257 4.535
32.912 38.464 4.039
33.916 39.708 3.709
32.823 39.839 4.915
30.832 39.727 5.537
32.053 41.014 2.994
29.927 40.049 2.829
30.502 38.656 3.459
29.306 42.337 4.408
29.311 43.794 4.44
29.304 44.269 5.885
30.031 45.197 6.251
28.083 44.359 3.724
27.885 45.824 3.973
26.979 46.399 4.822
28.645 46.902 3.407
27.13 47.768 4.818
28.147 48.101 3.96
29.702 46.968 2.484
28.67 49.355 3.624
30.221 48.217 2.148
29.704 49.393 2.719
30.103 50.27 2.456
30.165 44.107 4.021
26.588 48.414 5.352
30.078 46.143 2.075
30.966 48.271 1.495
28.292 50.187 4.037
26.306 45.902 5.365
28.552 41.772 3.983
27.275 43.891 4.052
28.195 44.238 2.748
28.476 43.617 6.697
28.345 43.95 8.107
29.664 43.73 8.839
30.087 44.568 9.631
27.244 43.103 8.754
27.022 43.453 10.214
26.738 44.634 10.505
27.127 42.55 11.069
27.934 42.853 6.237
28.137 44.933 8.165
27.513 42.15 8.69
26.401 43.263 8.255
30.315 42.605 8.566
31.588 42.299 9.208
32.696 43.269 8.781
33.51 43.69 9.601
32.001 40.87 8.898
29.854 41.985 7.879
31.474 42.37 10.21
31.905 40.698 7.917
32.954 40.73 9.167
31.417 40.235 9.404
32.735 43.619 7.502
33.766 44.534 7.019
33.585 45.951 7.556
34.561 46.669 7.761
33.786 44.568 5.484
34.219 43.283 4.771
34.219 43.49 3.256
35.608 42.887 5.246
35.593 42.731 6.234
35.895 42.048 4.783
36.256 43.62 5.036
32.006 43.207 6.905
34.855 44.224 3.022
34.503 42.644 2.806
33.298 43.736 2.955
34.668 44.191 7.325
33.582 42.551 5.003
34.414 45.29 5.204
32.862 44.783 5.173
32.343 46.346 7.815
32.08 47.697 8.297
31.75 47.805 9.785
31.511 48.905 10.288
30.92 48.343 7.502
29.74 47.534 7.631
31.288 48.467 6.019
32.911 48.268 8.117
32.242 48.76 5.934
31.171 47.58 5.57
31.61 45.64 7.651
30.723 49.26 7.9
30.692 49.142 5.582
29.842 46.684 7.105
31.731 46.679 10.49
31.404 46.728 11.904
31.929 45.582 12.744
31.286 45.177 13.712
31.955 45.824 9.973
31.751 47.615 12.296
30.381 46.776 12.008
33.093 45.052 12.377
33.693 43.963 13.126
35.186 43.834 12.85
36.012 43.908 13.762
33 42.646 12.781
33.586 41.483 13.491
34.743 40.825 13.179
33.092 40.883 14.688
35.001 39.858 14.113
34.003 39.87 15.053
31.965 41.105 15.493
33.823 39.075 16.192
31.786 40.313 16.629
32.712 39.312 16.964
32.551 38.765 17.785
33.584 44.167 14.11
35.788 39.241 14.114
31.302 41.811 15.267
30.991 40.465 17.202
34.491 38.362 16.42
35.316 41.022 12.385
33.518 45.476 11.533
33.091 42.483 11.807
32.046 42.71 13.042
35.513 43.632 11.58
36.883 43.462 11.123
37.859 44.548 11.563
37.501 45.719 11.698
36.91 43.346 9.584
38.328 43.479 9.062
36.323 42.004 9.176
37.228 42.569 11.49
38.452 44.383 8.651
35.325 42.072 9.156
36.388 44.11 9.216
38.976 43.367 9.816
38.5 42.776 8.371
34.689 43.605 10.927
36.661 41.758 8.268
36.6 41.307 9.838
39.102 44.131 11.779
40.176 45.025 12.196
40.87 45.594 10.96
40.955 44.929 9.93
41.198 44.248 13.033
42.392 45.066 13.514
43.587 44.192 13.88
43.393 43.149 14.547
44.723 44.551 13.503
42.673 45.659 12.786
39.802 45.774 12.743
42.127 45.555 14.321
39.244 43.105 11.624
41.547 43.513 12.474
40.731 43.905 13.833
41.366 46.822 11.077
42.075 47.497 9.992
43.396 48.074 10.52
43.587 48.184 11.729
41.202 48.619 9.421
40.001 48.101 8.663
40.167 47.369 7.489
38.703 48.307 9.134
39.082 46.851 6.803
37.598 47.79 8.449
37.8 47.059 7.282
36.737 46.518 6.591
42.294 46.822 9.287
39.224 46.324 5.96
36.678 47.945 8.794
41.206 47.264 12.012
38.559 48.828 9.969
41.093 47.215 7.133
41.756 49.158 8.798
40.879 49.177 10.175
35.903 46.646 7.123
44.335 48.421 9.624
44.259 48.315 8.163
44.19 46.848 7.78
44.558 45.977 8.569
45.566 48.956 7.695
45.907 49.899 8.808
45.585 49.084 10.027
46.87 50.139 8.78
43.472 48.818 7.81
45.436 49.661 10.825
46.293 48.412 10.216
45.342 50.713 8.761
45.433 49.449 6.838
46.279 48.266 7.581
43.735 46.577 6.564
43.613 45.206 6.099
44.143 45.038 4.686
43.959 45.902 3.825
42.144 44.765 6.145
41.733 43.493 5.393
42.428 42.278 5.988
40.217 43.331 5.462
39.778 44.124 5.041
39.948 42.502 4.972
39.933 43.26 6.418
43.483 47.404 5.994
42.172 42.184 6.951
42.152 41.456 5.489
43.42 42.391 5.918
44.149 44.608 6.714
41.991 43.588 4.433
41.589 45.519 5.777
41.898 44.629 7.112
44.811 43.915 4.464
45.344 43.585 3.158
44.767 42.233 2.792
44.97 41.245 3.499
46.878 43.491 3.168
47.373 42.814 1.892
47.468 44.883 3.285
45.011 44.251 2.504
47.161 43.393 1.106
47.216 45.278 4.169
47.143 42.906 3.926
48.361 42.678 1.951
46.919 41.93 1.788
44.917 43.301 5.3
48.465 44.829 3.215
47.112 45.459 2.548
44.02 42.207 1.698
43.418 40.98 1.213
44.166 40.558 -0.038
44.174 41.283 -1.032
41.942 41.212 0.882
41.225 40.081 0.135
41.263 38.787 0.955
39.791 40.509 -0.146
39.793 41.337 -0.707
39.313 39.778 -0.633
39.322 40.694 0.717
43.906 43.129 1.227
40.808 38.939 1.831
40.792 38.064 0.452
42.214 38.523 1.111
43.528 40.27 1.903
41.68 39.929 -0.74
41.88 42.028 0.314
41.455 41.355 1.74
44.807 39.396 0.017
45.544 38.882 -1.133
44.736 37.737 -1.742
44.686 36.639 -1.191
46.916 38.375 -0.7
47.862 38.089 -1.855
49.134 37.399 -1.401
49.655 37.76 -0.321
49.616 36.501 -2.125
47.407 37.49 -2.485
45.664 39.602 -1.809
48.118 38.943 -2.265
44.74 38.9 0.923
46.785 37.533 -0.207
47.331 39.071 -0.141
44.102 37.998 -2.879
43.285 36.988 -3.541
44.048 36.389 -4.713
44.161 37.016 -5.761
41.99 37.625 -4.051
40.882 36.656 -4.316
40.992 35.399 -4.833
39.482 36.884 -4.113
39.747 34.829 -4.965
38.803 35.72 -4.53
38.736 37.962 -3.62
37.41 35.601 -4.469
37.35 37.842 -3.56
36.703 36.668 -3.983
35.706 36.623 -3.923
43.113 36.252 -2.882
39.562 33.914 -5.32
39.179 38.799 -3.316
36.814 38.603 -3.212
36.963 34.756 -4.776
41.85 34.952 -5.082
44.235 38.958 -3.245
42.181 38.099 -4.907
41.661 38.273 -3.369
44.558 35.175 -4.532
45.319 34.486 -5.571
44.408 33.63 -6.444
43.338 33.206 -6.007
46.37 33.575 -4.938
47.348 34.275 -4.022
48.124 33.259 -3.201
49.104 33.902 -2.332
49.814 33.269 -1.404
49.656 31.965 -1.215
50.685 33.944 -0.663
46.856 34.867 -3.395
45.769 35.174 -6.154
49.253 34.893 -2.443
47.997 34.799 -4.561
51.208 33.48 0.048
50.819 34.926 -0.819
44.37 34.761 -3.594
48.593 32.646 -3.831
47.474 32.749 -2.645
50.188 31.501 -0.494
49.02 31.446 -1.778
46.888 33.141 -5.675
45.893 32.873 -4.409
44.853 33.362 -7.669
44.088 32.543 -8.601
42.622 32.949 -8.583
41.748 32.09 -8.46
44.192 31.068 -8.212
45.606 30.552 -8.04
46.448 30.744 -9.282
46.038 31.042 -7.283
44.443 32.711 -9.526
45.569 29.576 -7.827
45.776 33.78 -7.898
43.742 30.516 -8.924
43.7 30.93 -7.345
47.898 31.609 -8.17
46.042 30.377 -10.384
47.633 31.32 -9.11
48.261 31.47 -9.899
42.354 34.248 -8.706
40.982 34.741 -8.676
40.088 34.047 -9.694
39.033 33.516 -9.341
40.931 36.248 -8.924
39.538 36.811 -8.9
38.873 37.007 -7.69
38.872 37.108 -10.086
37.567 37.488 -7.661
37.563 37.59 -10.069
36.908 37.781 -8.854
35.974 38.126 -8.834
40.61 34.519 -7.761
37.105 37.621 -6.779
37.095 37.797 -10.94
43.182 34.857 -8.821
39.336 36.976 -10.961
39.336 36.802 -6.833
41.316 36.422 -9.817
41.452 36.69 -8.212
40.509 34.064 -10.954
39.741 33.439 -12.021
39.357 32.007 -11.698
38.219 31.603 -11.931
40.52 33.481 -13.336
40.526 34.847 -13.99
39.125 35.372 -14.249
38.369 34.705 -14.99
38.783 36.451 -13.711
40.971 35.48 -13.385
38.902 33.982 -12.196
40.979 34.776 -14.858
41.413 34.551 -11.106
40.092 32.852 -13.957
41.451 33.238 -13.139
40.3 31.237 -11.166
40.009 29.856 -10.818
38.886 29.785 -9.79
38.009 28.925 -9.882
41.255 29.156 -10.272
42.314 28.859 -11.327
43.347 27.852 -10.85
41.863 28.491 -12.139
39.694 29.383 -11.648
42.782 29.71 -11.559
41.215 31.689 -11.029
40.98 28.286 -9.856
41.671 29.739 -9.571
44.831 29.141 -11.32
43.001 26.751 -10.416
44.621 28.221 -10.933
45.367 27.603 -10.619
38.904 30.693 -8.816
37.869 30.699 -7.787
36.548 31.187 -8.373
35.473 30.816 -7.9
38.283 31.581 -6.598
38.387 32.948 -6.958
39.684 31.365 -8.853
37.737 29.756 -7.471
39.169 31.265 -6.262
37.598 31.485 -5.877
38.632 33.02 -7.924
36.634 32.012 -9.411
35.443 32.536 -10.067
34.701 31.412 -10.78
33.471 31.414 -10.852
35.825 33.631 -11.071
34.717 33.981 -12.059
34.944 35.324 -12.743
34.712 36.479 -11.771
34.777 37.819 -12.426
34.836 32.934 -9.373
33.806 36.365 -11.345
35.409 36.435 -11.044
34.67 33.265 -12.762
33.841 34.012 -11.569
34.578 37.72 -13.4
34.103 38.424 -12.005
35.693 38.2 -12.307
34.306 35.414 -13.497
35.881 35.367 -13.065
37.601 32.245 -9.706
36.618 33.316 -11.588
36.059 34.454 -10.559
35.457 30.448 -11.294
34.877 29.319 -12.008
34.185 28.33 -11.076
33.126 27.797 -11.4
35.961 28.583 -12.798
36.675 29.434 -13.834
37.751 28.66 -14.576
37.697 28.514 -15.799
38.736 28.159 -13.837
36.006 29.762 -14.498
34.178 29.679 -12.647
37.102 30.211 -13.374
36.478 30.568 -11.144
38.721 28.332 -12.833
39.486 27.616 -14.264
35.539 27.803 -13.272
36.648 28.235 -12.153
34.784 28.086 -9.917
34.223 27.136 -8.967
33.19 27.737 -8.019
32.689 27.052 -7.125
35.352 26.485 -8.166
36.374 25.723 -9.016
37.434 25.093 -8.127
35.657 24.655 -9.825
34.98 25.085 -10.423
36.32 24.154 -10.382
35.196 24.018 -9.207
35.658 28.615 -9.754
37.001 24.455 -7.489
38.095 24.598 -8.692
37.908 25.808 -7.611
33.773 26.385 -9.49
36.807 26.361 -9.65
34.949 25.839 -7.537
35.84 27.2 -7.687
32.869 29.012 -8.212
31.886 29.674 -7.365
30.763 30.269 -8.201
29.869 30.924 -7.669
32.517 30.808 -6.536
33.039 31.81 -7.416
33.632 30.266 -5.656
31.489 28.99 -6.741
33.987 29.411 -6.043
34.378 30.935 -5.6
33.363 29.477 -8.992
31.792 31.236 -5.96
33.282 30.087 -4.733
33.978 31.578 -7.693
30.82 30.043 -9.51
29.806 30.558 -10.424
29.649 32.068 -10.278
28.569 32.559 -9.949
28.465 29.873 -10.155
28.491 28.37 -10.352
27.149 27.724 -10.063
26.726 27.725 -8.886
26.515 27.22 -11.017
28.713 28.184 -11.29
30.063 30.338 -11.374
29.145 27.985 -9.728
31.635 29.478 -9.82
27.807 30.247 -10.783
28.223 30.049 -9.217
30.734 32.796 -10.525
30.744 34.254 -10.428
30.493 34.802 -9.028
30.609 36.009 -8.804
29.728 34.868 -11.394
30.387 35.486 -12.612
31.677 34.563 -10.704
31.576 32.239 -10.793
29.224 35.577 -10.91
29.109 34.15 -11.697
30.916 34.782 -13.473
30.371 36.812 -12.682
30.785 37.28 -13.463
29.944 37.347 -11.951
30.144 33.926 -8.091
29.909 34.377 -6.733
31.162 35.049 -6.202
31.103 35.918 -5.336
30.061 32.951 -8.404
29.15 35.03 -6.719
29.679 33.595 -6.151
32.308 34.64 -6.734
33.581 35.207 -6.32
33.596 36.7 -6.605
34.161 37.479 -5.844
34.721 34.524 -7.058
32.215 33.898 -7.454
33.695 35.067 -5.333
34.618 33.532 -6.989
34.706 34.793 -8.021
35.594 34.795 -6.652
32.967 37.098 -7.705
32.922 38.502 -8.083
32.079 39.321 -7.117
32.45 40.432 -6.752
32.359 38.657 -9.497
32.474 40.064 -10.059
33.919 40.53 -10.192
34.803 39.69 -10.453
34.17 41.742 -10.054
32.079 40.072 -10.958
33.861 38.877 -8.109
32.022 40.683 -9.445
32.523 36.339 -8.255
31.403 38.425 -9.466
32.867 38.056 -10.089
30.941 38.774 -6.709
30.06 39.485 -5.792
30.754 39.7 -4.448
30.549 40.717 -3.794
28.749 38.71 -5.602
28.993 37.388 -5.159
30.742 37.833 -7.086
29.862 40.388 -6.183
28.27 38.678 -6.475
28.194 39.184 -4.924
29.379 36.851 -5.908
31.582 38.743 -4.044
32.305 38.868 -2.784
33.354 39.972 -2.914
33.495 40.805 -2.018
32.989 37.54 -2.395
33.892 37.747 -1.19
31.931 36.489 -2.08
31.656 39.142 -2.074
33.393 37.517 -0.354
31.191 36.556 -2.749
33.571 37.268 -3.154
34.697 37.158 -1.269
34.183 38.703 -1.15
31.665 37.933 -4.678
32.346 35.581 -2.126
31.571 36.649 -1.161
34.081 39.981 -4.033
35.093 41.011 -4.282
34.42 42.381 -4.267
34.957 43.35 -3.737
35.767 40.793 -5.646
36.765 41.864 -6.121
37.97 41.908 -5.187
37.225 41.55 -7.538
36.435 41.54 -8.152
37.873 42.248 -7.842
37.67 40.655 -7.555
33.872 39.213 -4.696
38.422 41.016 -5.184
38.612 42.606 -5.504
37.666 42.13 -4.261
35.767 40.98 -3.547
36.31 42.75 -6.119
35.047 40.734 -6.336
36.264 39.926 -5.605
33.23 42.447 -4.853
32.466 43.681 -4.92
32.226 44.271 -3.53
32.361 45.476 -3.333
31.132 43.409 -5.617
30.321 44.642 -5.95
31.095 45.647 -6.789
29.506 44.367 -6.461
33.001 44.354 -5.448
30.044 45.089 -5.099
32.896 41.544 -5.256
30.575 42.818 -5.021
31.315 42.912 -6.473
30.137 47.164 -5.855
31.904 45.275 -7.644
30.836 46.931 -6.557
31.325 47.663 -7.071
31.867 43.423 -2.569
31.621 43.885 -1.207
32.902 44.52 -0.65
32.869 45.61 -0.074
31.159 42.709 -0.296
30.897 43.2 1.123
29.896 42.08 -0.866
30.917 44.593 -1.236
31.768 43.343 1.592
29.394 41.623 -0.132
31.909 42.059 -0.249
30.391 44.061 1.089
30.36 42.517 1.618
31.78 42.436 -2.865
29.325 42.794 -1.27
30.147 41.413 -1.567
34.031 43.843 -0.836
35.312 44.364 -0.369
35.587 45.718 -1.005
36.01 46.659 -0.336
36.44 43.398 -0.727
36.585 42.26 0.232
37.261 42.434 1.437
36.027 41.018 -0.054
37.381 41.386 2.346
36.14 39.964 0.846
36.822 40.152 2.053
36.904 39.397 2.701
35.223 44.518 0.618
37.875 41.533 3.209
35.732 39.067 0.627
33.925 42.938 -1.328
35.539 40.882 -0.915
37.664 43.317 1.656
37.286 43.91 -0.729
36.245 43.025 -1.622
35.336 45.82 -2.304
35.575 47.072 -3.003
34.637 48.182 -2.581
35.03 49.346 -2.544
35.495 46.864 -4.512
36.733 46.211 -5.063
37.124 46.868 -6.371
36.428 46.274 -7.495
36.229 46.884 -8.657
36.667 48.121 -8.855
35.601 46.242 -9.624
36.558 45.25 -5.24
36.532 47.368 -2.819
36.07 45.337 -7.391
37.485 46.319 -4.425
35.427 46.697 -10.503
35.295 45.297 -9.49
34.972 44.967 -2.753
38.107 46.756 -6.49
36.895 47.836 -6.311
36.491 48.576 -9.736
37.169 48.599 -8.139
35.388 47.75 -4.941
34.718 46.28 -4.703
33.395 47.828 -2.268
32.43 48.82 -1.836
32.771 49.31 -0.429
32.56 50.483 -0.107
31.012 48.237 -1.896
30.461 48.201 -3.321
29.096 47.544 -3.435
28.219 47.846 -2.605
28.898 46.737 -4.369
30.372 49.131 -3.638
32.433 49.601 -2.468
31.088 47.684 -3.879
33.19 46.82 -2.358
30.429 48.813 -1.368
31.053 47.318 -1.571
33.316 48.422 0.402
33.693 48.804 1.761
34.865 49.781 1.697
34.946 50.723 2.487
34.076 47.568 2.583
33.443 47.475 0.014
32.919 49.262 2.196
33.518 46.794 2.292
35.041 47.361 2.436
33.915 47.754 3.55
35.773 49.558 0.753
36.915 50.453 0.608
36.397 51.794 0.106
36.788 52.845 0.606
37.937 49.886 -0.387
39.331 50.512 -0.279
39.342 51.987 -0.653
40.618 52.677 -0.177
41.84 51.991 -0.677
37.342 50.585 1.498
40.613 53.625 -0.505
40.628 52.68 0.826
39.655 50.414 0.666
39.955 50.017 -0.889
42.481 52.671 -1.032
42.268 51.487 0.073
41.589 51.356 -1.407
38.564 52.435 -0.226
39.29 52.07 -1.643
35.606 48.735 0.16
37.595 50.046 -1.31
38.023 48.907 -0.222
35.508 51.748 -0.881
34.941 52.962 -1.452
34.357 53.859 -0.371
34.376 55.083 -0.492
33.865 52.609 -2.477
35.26 50.793 -1.201
35.672 53.468 -1.93
33.497 51.703 -2.273
33.131 53.285 -2.434
34.266 52.609 -3.392
33.841 53.257 0.695
33.256 54.047 1.766
34.196 54.416 2.906
33.773 55.048 3.874
32.014 53.352 2.323
30.767 53.626 1.505
29.53 53.013 2.118
29.297 53.238 3.325
28.789 52.315 1.392
30.631 54.598 1.466
32.858 54.909 1.37
30.887 53.229 0.614
33.891 52.23 0.693
31.86 53.694 3.228
32.179 52.386 2.304
35.464 54.032 2.807
36.393 54.401 3.859
37.165 53.296 4.546
38.124 53.572 5.264
35.706 53.49 1.977
37.07 55.091 3.476
35.877 54.944 4.58
36.759 52.046 4.356
37.478 50.955 4.993
38.894 50.927 4.423
39.083 50.911 3.205
36.772 49.634 4.729
35.939 51.929 3.753
37.533 51.127 5.973
36.343 49.309 5.572
36.07 49.764 4.029
37.436 48.957 4.412
39.886 50.945 5.307
41.279 50.918 4.89
41.609 49.494 4.458
42.15 48.709 5.227
42.177 51.354 6.049
43.637 51.431 5.663
44.422 51.996 6.451
44.006 50.925 4.582
39.584 50.979 6.3
41.361 51.495 4.082
42.072 50.692 6.783
41.876 52.253 6.348
41.265 49.174 3.218
41.494 47.848 2.672
42.313 47.901 1.395
41.978 48.638 0.47
40.166 47.153 2.301
39.232 47.1 3.506
40.449 45.748 1.783
37.836 46.606 3.163
42.051 47.353 3.352
39.587 45.324 1.513
41.061 45.811 0.997
39.728 47.695 1.591
39.628 46.494 4.191
39.158 48.018 3.889
37.898 45.684 2.787
40.822 49.948 2.677
37.279 46.596 3.991
40.879 45.217 2.51
37.428 47.219 2.49
43.381 47.118 1.347
44.206 47.035 0.15
43.906 45.657 -0.425
44.022 44.649 0.274
45.713 47.119 0.468
46.003 48.373 1.098
46.527 47.012 -0.81
43.906 47.715 -0.493
47.425 46.611 -0.61
46.048 46.43 -1.472
43.573 46.583 2.214
45.953 46.372 1.12
46.657 47.923 -1.209
45.862 48.306 2.091
43.503 45.615 -1.689
43.183 44.354 -2.334
44.262 44.015 -3.344
44.633 44.845 -4.167
41.821 44.431 -3.06
40.719 44.812 -2.066
41.5 43.092 -3.712
39.341 44.969 -2.714
43.225 43.653 -1.621
40.63 43.168 -4.194
42.228 42.863 -4.354
41.88 45.146 -3.744
40.662 44.107 -1.366
40.965 45.678 -1.639
39.083 44.105 -3.137
43.439 46.536 -2.159
38.68 45.216 -2.011
41.438 42.394 -3.002
39.389 45.686 -3.404
44.77 42.793 -3.269
45.799 42.343 -4.187
45.271 41.165 -4.983
45.068 40.072 -4.444
47.073 41.903 -3.446
47.644 43.077 -2.651
48.103 41.385 -4.452
48.872 42.72 -1.836
45.944 43.087 -4.838
48.913 41.084 -3.954
47.704 40.622 -4.954
46.824 41.188 -2.804
47.881 43.807 -3.289
46.935 43.41 -2.031
49.591 42.395 -2.448
44.374 42.201 -2.512
49.189 43.53 -1.346
48.338 42.124 -5.078
48.637 42.002 -1.183
45.043 41.399 -6.27
44.543 40.363 -7.154
45.693 39.742 -7.936
46.199 40.32 -8.898
43.508 40.948 -8.116
42.227 41.469 -7.461
41.356 42.143 -8.503
41.48 40.315 -6.806
42.06 39.894 -6.109
40.643 40.658 -6.379
41.244 39.633 -7.499
45.251 42.37 -6.579
41.116 41.485 -9.219
40.518 42.484 -8.073
41.852 42.91 -8.913
44.113 39.644 -6.601
42.471 42.126 -6.752
43.247 40.236 -8.755
43.929 41.711 -8.592
46.113 38.564 -7.5
47.191 37.847 -8.157
46.622 36.568 -8.761
45.377 36.474 -8.865
48.302 37.521 -7.153
47.8 36.833 -6.018
47.421 35.683 -9.129
45.612 38.205 -6.662
47.536 38.411 -8.904
48.723 38.375 -6.854
48.983 36.948 -7.604
46.805 36.915 -5.993
